

#Time = 0.0000000000000
0.0000000000000		-1.0000000000000		0.0000000100000
0.0000000000000		-0.5000000000000		0.0000000100000
0.0000000000000		0.0000000000000		0.0000000100000
0.0000000000000		0.5000000000000		0.0000000100000
0.0000000000000		1.0000000000000		0.0000000100000
0.0000000000000		1.5000000000000		0.0000000100000
0.0000000000000		2.0000000000000		0.0000000100000
0.0000000000000		2.5000000000000		2.4834466123140
0.0000000000000		3.0000000000000		2.4841113588054
0.0000000000000		3.5000000000000		2.4844743594774
0.0000000000000		4.0000000000000		2.4843780388798
0.0000000000000		4.5000000000000		2.4850853368359
0.0000000000000		5.0000000000000		2.4864072419605
0.0000000000000		5.5000000000000		2.4878036747470
0.0000000000000		6.0000000000000		2.4890178581887
0.0000000000000		6.5000000000000		2.4900466718802
0.0000000000000		7.0000000000000		2.4904141598906
0.0000000000000		7.5000000000000		2.4905966074581
0.0000000000000		8.0000000000000		2.4903773512043
0.0000000000000		8.5000000000000		2.4903773512043
0.0000000000000		9.0000000000000		2.4903773512043
0.0000000000000		9.5000000000000		2.4903773512043

0.5000000000000		-9.5000000000000		2.4903702013676
0.5000000000000		-9.0000000000000		2.4903702013676
0.5000000000000		-8.5000000000000		2.4903702013676
0.5000000000000		-8.0000000000000		2.4903702013676
0.5000000000000		-7.5000000000000		2.4906027065497
0.5000000000000		-7.0000000000000		2.4904189871728
0.5000000000000		-6.5000000000000		2.4900607687060
0.5000000000000		-6.0000000000000		2.4890512491569
0.5000000000000		-5.5000000000000		2.4878844858215
0.5000000000000		-5.0000000000000		2.4864445904131
0.5000000000000		-4.5000000000000		2.4851425291368
0.5000000000000		-4.0000000000000		2.4843897718875
0.5000000000000		-3.5000000000000		2.4844547075357
0.5000000000000		-3.0000000000000		2.4840465312408
0.5000000000000		-2.5000000000000		2.4833374708827
0.5000000000000		-2.0000000000000		0.0000000100000
0.5000000000000		-1.5000000000000		0.0000000100000
0.5000000000000		-1.0000000000000		0.0000000100000
0.5000000000000		-0.5000000000000		0.0000000100000
0.5000000000000		0.0000000000000		0.0000000100000
0.5000000000000		0.5000000000000		0.0000000100000
0.5000000000000		1.0000000000000		0.0000000100000
0.5000000000000		1.5000000000000		0.0000000100000
0.5000000000000		2.0000000000000		0.0000000100000
0.5000000000000		2.5000000000000		2.4833374708827
0.5000000000000		3.0000000000000		2.4840465312408
0.5000000000000		3.5000000000000		2.4844547075357
0.5000000000000		4.0000000000000		2.4843897718875
0.5000000000000		4.5000000000000		2.4851425291368
0.5000000000000		5.0000000000000		2.4864445904131
0.5000000000000		5.5000000000000		2.4878844858215
0.5000000000000		6.0000000000000		2.4890512491569
0.5000000000000		6.5000000000000		2.4900607687060
0.5000000000000		7.0000000000000		2.4904189871728
0.5000000000000		7.5000000000000		2.4906027065497
0.5000000000000		8.0000000000000		2.4903702013676
0.5000000000000		8.5000000000000		2.4903702013676
0.5000000000000		9.0000000000000		2.4903702013676
0.5000000000000		9.5000000000000		2.4903702013676

1.0000000000000		-9.5000000000000		2.4903344112293
1.0000000000000		-9.0000000000000		2.4903344112293
1.0000000000000		-8.5000000000000		2.4903344112293
1.0000000000000		-8.0000000000000		2.4903344112293
1.0000000000000		-7.5000000000000		2.4906197906533
1.0000000000000		-7.0000000000000		2.4904531970865
1.0000000000000		-6.5000000000000		2.4901385644024
1.0000000000000		-6.0000000000000		2.4892195789270
1.0000000000000		-5.5000000000000		2.4880750755128
1.0000000000000		-5.0000000000000		2.4866017852024
1.0000000000000		-4.5000000000000		2.4853493740883
1.0000000000000		-4.0000000000000		2.4844816709324
1.0000000000000		-3.5000000000000		2.4845171745812
1.0000000000000		-3.0000000000000		2.4844815039765
1.0000000000000		-2.5000000000000		2.4840326924042
1.0000000000000		-2.0000000000000		0.0000000100000
1.0000000000000		-1.5000000000000		0.0000000100000
1.0000000000000		-1.0000000000000		0.0000000100000
1.0000000000000		-0.5000000000000		0.0000000100000
1.0000000000000		0.0000000000000		0.0000000100000
1.0000000000000		0.5000000000000		0.0000000100000
1.0000000000000		1.0000000000000		0.0000000100000
1.0000000000000		1.5000000000000		0.0000000100000
1.0000000000000		2.0000000000000		0.0000000100000
1.0000000000000		2.5000000000000		2.4840326924042
1.0000000000000		3.0000000000000		2.4844815039765
1.0000000000000		3.5000000000000		2.4845171745812
1.0000000000000		4.0000000000000		2.4844816709324
1.0000000000000		4.5000000000000		2.4853493740883
1.0000000000000		5.0000000000000		2.4866017852024
1.0000000000000		5.5000000000000		2.4880750755128
1.0000000000000		6.0000000000000		2.4892195789270
1.0000000000000		6.5000000000000		2.4901385644024
1.0000000000000		7.0000000000000		2.4904531970865
1.0000000000000		7.5000000000000		2.4906197906533
1.0000000000000		8.0000000000000		2.4903344112293
1.0000000000000		8.5000000000000		2.4903344112293
1.0000000000000		9.0000000000000		2.4903344112293
1.0000000000000		9.5000000000000		2.4903344112293

1.5000000000000		-9.5000000000000		2.4903012100097
1.5000000000000		-9.0000000000000		2.4903012100097
1.5000000000000		-8.5000000000000		2.4903012100097
1.5000000000000		-8.0000000000000		2.4903012100097
1.5000000000000		-7.5000000000000		2.4906076223782
1.5000000000000		-7.0000000000000		2.4905024217873
1.5000000000000		-6.5000000000000		2.4902477717475
1.5000000000000		-6.0000000000000		2.4894223615583
1.5000000000000		-5.5000000000000		2.4884538571753
1.5000000000000		-5.0000000000000		2.4868371255732
1.5000000000000		-4.5000000000000		2.4857177548612
1.5000000000000		-4.0000000000000		2.4845888448993
1.5000000000000		-3.5000000000000		2.4845372458326
1.5000000000000		-3.0000000000000		2.4849554321613
1.5000000000000		-2.5000000000000		2.4844164677591
1.5000000000000		-2.0000000000000		2.4857069437203
1.5000000000000		-1.5000000000000		0.0000000100000
1.5000000000000		-1.0000000000000		0.0000000100000
1.5000000000000		-0.5000000000000		0.0000000100000
1.5000000000000		0.0000000000000		0.0000000100000
1.5000000000000		0.5000000000000		0.0000000100000
1.5000000000000		1.0000000000000		0.0000000100000
1.5000000000000		1.5000000000000		0.0000000100000
1.5000000000000		2.0000000000000		2.4857069437203
1.5000000000000		2.5000000000000		2.4844164677591
1.5000000000000		3.0000000000000		2.4849554321613
1.5000000000000		3.5000000000000		2.4845372458326
1.5000000000000		4.0000000000000		2.4845888448993
1.5000000000000		4.5000000000000		2.4857177548612
1.5000000000000		5.0000000000000		2.4868371255732
1.5000000000000		5.5000000000000		2.4884538571753
1.5000000000000		6.0000000000000		2.4894223615583
1.5000000000000		6.5000000000000		2.4902477717475
1.5000000000000		7.0000000000000		2.4905024217873
1.5000000000000		7.5000000000000		2.4906076223782
1.5000000000000		8.0000000000000		2.4903012100097
1.5000000000000		8.5000000000000		2.4903012100097
1.5000000000000		9.0000000000000		2.4903012100097
1.5000000000000		9.5000000000000		2.4903012100097

2.0000000000000		-9.5000000000000		2.4902424925571
2.0000000000000		-9.0000000000000		2.4902424925571
2.0000000000000		-8.5000000000000		2.4902424925571
2.0000000000000		-8.0000000000000		2.4902424925571
2.0000000000000		-7.5000000000000		2.4905658896306
2.0000000000000		-7.0000000000000		2.4905620536025
2.0000000000000		-6.5000000000000		2.4903989687349
2.0000000000000		-6.0000000000000		2.4897709411478
2.0000000000000		-5.5000000000000		2.4887281763768
2.0000000000000		-5.0000000000000		2.4873994254337
2.0000000000000		-4.5000000000000		2.4861663232519
2.0000000000000		-4.0000000000000		2.4848226593314
2.0000000000000		-3.5000000000000		2.4845187238509
2.0000000000000		-3.0000000000000		2.4849946076733
2.0000000000000		-2.5000000000000		2.4851318933997
2.0000000000000		-2.0000000000000		2.4855170003991
2.0000000000000		-1.5000000000000		2.4857069437202
2.0000000000000		-1.0000000000000		0.0000000100000
2.0000000000000		-0.5000000000000		0.0000000100000
2.0000000000000		0.0000000000000		0.0000000100000
2.0000000000000		0.5000000000000		0.0000000100000
2.0000000000000		1.0000000000000		0.0000000100000
2.0000000000000		1.5000000000000		2.4857069437202
2.0000000000000		2.0000000000000		2.4855170003991
2.0000000000000		2.5000000000000		2.4851318933997
2.0000000000000		3.0000000000000		2.4849946076733
2.0000000000000		3.5000000000000		2.4845187238509
2.0000000000000		4.0000000000000		2.4848226593314
2.0000000000000		4.5000000000000		2.4861663232519
2.0000000000000		5.0000000000000		2.4873994254337
2.0000000000000		5.5000000000000		2.4887281763768
2.0000000000000		6.0000000000000		2.4897709411478
2.0000000000000		6.5000000000000		2.4903989687349
2.0000000000000		7.0000000000000		2.4905620536025
2.0000000000000		7.5000000000000		2.4905658896306
2.0000000000000		8.0000000000000		2.4902424925571
2.0000000000000		8.5000000000000		2.4902424925571
2.0000000000000		9.0000000000000		2.4902424925571
2.0000000000000		9.5000000000000		2.4902424925571

2.5000000000000		-9.5000000000000		2.4901779867209
2.5000000000000		-9.0000000000000		2.4901779867209
2.5000000000000		-8.5000000000000		2.4901779867209
2.5000000000000		-8.0000000000000		2.4901779867209
2.5000000000000		-7.5000000000000		2.4904667966480
2.5000000000000		-7.0000000000000		2.4906298915552
2.5000000000000		-6.5000000000000		2.4905026592674
2.5000000000000		-6.0000000000000		2.4900567938526
2.5000000000000		-5.5000000000000		2.4891545690175
2.5000000000000		-5.0000000000000		2.4879479644090
2.5000000000000		-4.5000000000000		2.4868113343402
2.5000000000000		-4.0000000000000		2.4854092226033
2.5000000000000		-3.5000000000000		2.4846118980867
2.5000000000000		-3.0000000000000		2.4845805377197
2.5000000000000		-2.5000000000000		2.4849150767631
2.5000000000000		-2.0000000000000		2.4851318933997
2.5000000000000		-1.5000000000000		2.4844164677591
2.5000000000000		-1.0000000000000		2.4840326924042
2.5000000000000		-0.5000000000000		2.4833374708827
2.5000000000000		0.0000000000000		2.4834466123140
2.5000000000000		0.5000000000000		2.4833374708827
2.5000000000000		1.0000000000000		2.4840326924042
2.5000000000000		1.5000000000000		2.4844164677591
2.5000000000000		2.0000000000000		2.4851318933997
2.5000000000000		2.5000000000000		2.4849150767631
2.5000000000000		3.0000000000000		2.4845805377197
2.5000000000000		3.5000000000000		2.4846118980867
2.5000000000000		4.0000000000000		2.4854092226033
2.5000000000000		4.5000000000000		2.4868113343402
2.5000000000000		5.0000000000000		2.4879479644090
2.5000000000000		5.5000000000000		2.4891545690175
2.5000000000000		6.0000000000000		2.4900567938526
2.5000000000000		6.5000000000000		2.4905026592674
2.5000000000000		7.0000000000000		2.4906298915552
2.5000000000000		7.5000000000000		2.4904667966480
2.5000000000000		8.0000000000000		2.4901779867209
2.5000000000000		8.5000000000000		2.4901779867209
2.5000000000000		9.0000000000000		2.4901779867209
2.5000000000000		9.5000000000000		2.4901779867209

3.0000000000000		-9.5000000000000		2.4901234586009
3.0000000000000		-9.0000000000000		2.4901234586009
3.0000000000000		-8.5000000000000		2.4901234586009
3.0000000000000		-8.0000000000000		2.4901234586009
3.0000000000000		-7.5000000000000		2.4903398043454
3.0000000000000		-7.0000000000000		2.4906369794709
3.0000000000000		-6.5000000000000		2.4906073824429
3.0000000000000		-6.0000000000000		2.4903357821767
3.0000000000000		-5.5000000000000		2.4897318048395
3.0000000000000		-5.0000000000000		2.4885866715000
3.0000000000000		-4.5000000000000		2.4873917752852
3.0000000000000		-4.0000000000000		2.4863540241971
3.0000000000000		-3.5000000000000		2.4850893391552
3.0000000000000		-3.0000000000000		2.4846058625652
3.0000000000000		-2.5000000000000		2.4845805377197
3.0000000000000		-2.0000000000000		2.4849946076733
3.0000000000000		-1.5000000000000		2.4849554321613
3.0000000000000		-1.0000000000000		2.4844815039765
3.0000000000000		-0.5000000000000		2.4840465312408
3.0000000000000		0.0000000000000		2.4841113588054
3.0000000000000		0.5000000000000		2.4840465312408
3.0000000000000		1.0000000000000		2.4844815039765
3.0000000000000		1.5000000000000		2.4849554321613
3.0000000000000		2.0000000000000		2.4849946076733
3.0000000000000		2.5000000000000		2.4845805377197
3.0000000000000		3.0000000000000		2.4846058625652
3.0000000000000		3.5000000000000		2.4850893391552
3.0000000000000		4.0000000000000		2.4863540241971
3.0000000000000		4.5000000000000		2.4873917752852
3.0000000000000		5.0000000000000		2.4885866715000
3.0000000000000		5.5000000000000		2.4897318048395
3.0000000000000		6.0000000000000		2.4903357821767
3.0000000000000		6.5000000000000		2.4906073824429
3.0000000000000		7.0000000000000		2.4906369794709
3.0000000000000		7.5000000000000		2.4903398043454
3.0000000000000		8.0000000000000		2.4901234586009
3.0000000000000		8.5000000000000		2.4901234586009
3.0000000000000		9.0000000000000		2.4901234586009
3.0000000000000		9.5000000000000		2.4901234586009

3.5000000000000		-9.5000000000000		2.4900775026901
3.5000000000000		-9.0000000000000		2.4900775026901
3.5000000000000		-8.5000000000000		2.4900775026901
3.5000000000000		-8.0000000000000		2.4900775026901
3.5000000000000		-7.5000000000000		2.4901975131698
3.5000000000000		-7.0000000000000		2.4905240367689
3.5000000000000		-6.5000000000000		2.4906848864700
3.5000000000000		-6.0000000000000		2.4905292798601
3.5000000000000		-5.5000000000000		2.4901769224880
3.5000000000000		-5.0000000000000		2.4892657392620
3.5000000000000		-4.5000000000000		2.4883350200300
3.5000000000000		-4.0000000000000		2.4870770012225
3.5000000000000		-3.5000000000000		2.4861965153973
3.5000000000000		-3.0000000000000		2.4850893391552
3.5000000000000		-2.5000000000000		2.4846118980867
3.5000000000000		-2.0000000000000		2.4845187238510
3.5000000000000		-1.5000000000000		2.4845372458325
3.5000000000000		-1.0000000000000		2.4845171745812
3.5000000000000		-0.5000000000000		2.4844547075357
3.5000000000000		0.0000000000000		2.4844743594774
3.5000000000000		0.5000000000000		2.4844547075357
3.5000000000000		1.0000000000000		2.4845171745812
3.5000000000000		1.5000000000000		2.4845372458325
3.5000000000000		2.0000000000000		2.4845187238510
3.5000000000000		2.5000000000000		2.4846118980867
3.5000000000000		3.0000000000000		2.4850893391552
3.5000000000000		3.5000000000000		2.4861965153973
3.5000000000000		4.0000000000000		2.4870770012225
3.5000000000000		4.5000000000000		2.4883350200300
3.5000000000000		5.0000000000000		2.4892657392620
3.5000000000000		5.5000000000000		2.4901769224880
3.5000000000000		6.0000000000000		2.4905292798601
3.5000000000000		6.5000000000000		2.4906848864700
3.5000000000000		7.0000000000000		2.4905240367689
3.5000000000000		7.5000000000000		2.4901975131698
3.5000000000000		8.0000000000000		2.4900775026901
3.5000000000000		8.5000000000000		2.4900775026901
3.5000000000000		9.0000000000000		2.4900775026901
3.5000000000000		9.5000000000000		2.4900775026901

4.0000000000000		-9.5000000000000		2.4900431117821
4.0000000000000		-9.0000000000000		2.4900431117821
4.0000000000000		-8.5000000000000		2.4900431117821
4.0000000000000		-8.0000000000000		2.4900431117821
4.0000000000000		-7.5000000000000		2.4901110431815
4.0000000000000		-7.0000000000000		2.4903274106210
4.0000000000000		-6.5000000000000		2.4906587205104
4.0000000000000		-6.0000000000000		2.4906691061039
4.0000000000000		-5.5000000000000		2.4904669284909
4.0000000000000		-5.0000000000000		2.4900259820971
4.0000000000000		-4.5000000000000		2.4889768845814
4.0000000000000		-4.0000000000000		2.4883067024563
4.0000000000000		-3.5000000000000		2.4870770012226
4.0000000000000		-3.0000000000000		2.4863540241971
4.0000000000000		-2.5000000000000		2.4854092226033
4.0000000000000		-2.0000000000000		2.4848226593314
4.0000000000000		-1.5000000000000		2.4845888448992
4.0000000000000		-1.0000000000000		2.4844816709324
4.0000000000000		-0.5000000000000		2.4843897718875
4.0000000000000		0.0000000000000		2.4843780388798
4.0000000000000		0.5000000000000		2.4843897718875
4.0000000000000		1.0000000000000		2.4844816709324
4.0000000000000		1.5000000000000		2.4845888448992
4.0000000000000		2.0000000000000		2.4848226593314
4.0000000000000		2.5000000000000		2.4854092226033
4.0000000000000		3.0000000000000		2.4863540241971
4.0000000000000		3.5000000000000		2.4870770012226
4.0000000000000		4.0000000000000		2.4883067024563
4.0000000000000		4.5000000000000		2.4889768845814
4.0000000000000		5.0000000000000		2.4900259820971
4.0000000000000		5.5000000000000		2.4904669284909
4.0000000000000		6.0000000000000		2.4906691061039
4.0000000000000		6.5000000000000		2.4906587205104
4.0000000000000		7.0000000000000		2.4903274106210
4.0000000000000		7.5000000000000		2.4901110431815
4.0000000000000		8.0000000000000		2.4900431117821
4.0000000000000		8.5000000000000		2.4900431117821
4.0000000000000		9.0000000000000		2.4900431117821
4.0000000000000		9.5000000000000		2.4900431117821

4.5000000000000		-9.5000000000000		2.4900280122944
4.5000000000000		-9.0000000000000		2.4900280122944
4.5000000000000		-8.5000000000000		2.4900280122944
4.5000000000000		-8.0000000000000		2.4900280122944
4.5000000000000		-7.5000000000000		2.4900548120658
4.5000000000000		-7.0000000000000		2.4901875568378
4.5000000000000		-6.5000000000000		2.4904593145170
4.5000000000000		-6.0000000000000		2.4907200535224
4.5000000000000		-5.5000000000000		2.4906536284663
4.5000000000000		-5.0000000000000		2.4903796617857
4.5000000000000		-4.5000000000000		2.4900063429438
4.5000000000000		-4.0000000000000		2.4889768845816
4.5000000000000		-3.5000000000000		2.4883350200301
4.5000000000000		-3.0000000000000		2.4873917752853
4.5000000000000		-2.5000000000000		2.4868113343401
4.5000000000000		-2.0000000000000		2.4861663232519
4.5000000000000		-1.5000000000000		2.4857177548612
4.5000000000000		-1.0000000000000		2.4853493740883
4.5000000000000		-0.5000000000000		2.4851425291368
4.5000000000000		0.0000000000000		2.4850853368359
4.5000000000000		0.5000000000000		2.4851425291368
4.5000000000000		1.0000000000000		2.4853493740883
4.5000000000000		1.5000000000000		2.4857177548612
4.5000000000000		2.0000000000000		2.4861663232519
4.5000000000000		2.5000000000000		2.4868113343401
4.5000000000000		3.0000000000000		2.4873917752853
4.5000000000000		3.5000000000000		2.4883350200301
4.5000000000000		4.0000000000000		2.4889768845816
4.5000000000000		4.5000000000000		2.4900063429438
4.5000000000000		5.0000000000000		2.4903796617857
4.5000000000000		5.5000000000000		2.4906536284663
4.5000000000000		6.0000000000000		2.4907200535224
4.5000000000000		6.5000000000000		2.4904593145170
4.5000000000000		7.0000000000000		2.4901875568378
4.5000000000000		7.5000000000000		2.4900548120658
4.5000000000000		8.0000000000000		2.4900280122944
4.5000000000000		8.5000000000000		2.4900280122944
4.5000000000000		9.0000000000000		2.4900280122944
4.5000000000000		9.5000000000000		2.4900280122944

5.0000000000000		-9.5000000000000		2.4900275526022
5.0000000000000		-9.0000000000000		2.4900275526022
5.0000000000000		-8.5000000000000		2.4900275526022
5.0000000000000		-8.0000000000000		2.4900275526022
5.0000000000000		-7.5000000000000		2.4900260084507
5.0000000000000		-7.0000000000000		2.4900833881090
5.0000000000000		-6.5000000000000		2.4902290763544
5.0000000000000		-6.0000000000000		2.4905107627523
5.0000000000000		-5.5000000000000		2.4907350840970
5.0000000000000		-5.0000000000000		2.4906552009434
5.0000000000000		-4.5000000000000		2.4903796617845
5.0000000000000		-4.0000000000000		2.4900259820976
5.0000000000000		-3.5000000000000		2.4892657392620
5.0000000000000		-3.0000000000000		2.4885866714997
5.0000000000000		-2.5000000000000		2.4879479644089
5.0000000000000		-2.0000000000000		2.4873994254336
5.0000000000000		-1.5000000000000		2.4868371255732
5.0000000000000		-1.0000000000000		2.4866017852025
5.0000000000000		-0.5000000000000		2.4864445904131
5.0000000000000		0.0000000000000		2.4864072419605
5.0000000000000		0.5000000000000		2.4864445904131
5.0000000000000		1.0000000000000		2.4866017852025
5.0000000000000		1.5000000000000		2.4868371255732
5.0000000000000		2.0000000000000		2.4873994254336
5.0000000000000		2.5000000000000		2.4879479644089
5.0000000000000		3.0000000000000		2.4885866714997
5.0000000000000		3.5000000000000		2.4892657392620
5.0000000000000		4.0000000000000		2.4900259820976
5.0000000000000		4.5000000000000		2.4903796617845
5.0000000000000		5.0000000000000		2.4906552009434
5.0000000000000		5.5000000000000		2.4907350840970
5.0000000000000		6.0000000000000		2.4905107627523
5.0000000000000		6.5000000000000		2.4902290763544
5.0000000000000		7.0000000000000		2.4900833881090
5.0000000000000		7.5000000000000		2.4900260084507
5.0000000000000		8.0000000000000		2.4900275526022
5.0000000000000		8.5000000000000		2.4900275526022
5.0000000000000		9.0000000000000		2.4900275526022
5.0000000000000		9.5000000000000		2.4900275526022

5.5000000000000		-9.5000000000000		2.4900319563969
5.5000000000000		-9.0000000000000		2.4900319563969
5.5000000000000		-8.5000000000000		2.4900319563969
5.5000000000000		-8.0000000000000		2.4900319563969
5.5000000000000		-7.5000000000000		2.4900212691991
5.5000000000000		-7.0000000000000		2.4900340896562
5.5000000000000		-6.5000000000000		2.4901048988528
5.5000000000000		-6.0000000000000		2.4902627220851
5.5000000000000		-5.5000000000000		2.4905659885533
5.5000000000000		-5.0000000000000		2.4907350840960
5.5000000000000		-4.5000000000000		2.4906536284665
5.5000000000000		-4.0000000000000		2.4904669284913
5.5000000000000		-3.5000000000000		2.4901769224880
5.5000000000000		-3.0000000000000		2.4897318048394
5.5000000000000		-2.5000000000000		2.4891545690177
5.5000000000000		-2.0000000000000		2.4887281763769
5.5000000000000		-1.5000000000000		2.4884538571752
5.5000000000000		-1.0000000000000		2.4880750755129
5.5000000000000		-0.5000000000000		2.4878844858215
5.5000000000000		0.0000000000000		2.4878036747470
5.5000000000000		0.5000000000000		2.4878844858215
5.5000000000000		1.0000000000000		2.4880750755129
5.5000000000000		1.5000000000000		2.4884538571752
5.5000000000000		2.0000000000000		2.4887281763769
5.5000000000000		2.5000000000000		2.4891545690177
5.5000000000000		3.0000000000000		2.4897318048394
5.5000000000000		3.5000000000000		2.4901769224880
5.5000000000000		4.0000000000000		2.4904669284913
5.5000000000000		4.5000000000000		2.4906536284665
5.5000000000000		5.0000000000000		2.4907350840960
5.5000000000000		5.5000000000000		2.4905659885533
5.5000000000000		6.0000000000000		2.4902627220851
5.5000000000000		6.5000000000000		2.4901048988528
5.5000000000000		7.0000000000000		2.4900340896562
5.5000000000000		7.5000000000000		2.4900212691991
5.5000000000000		8.0000000000000		2.4900319563969
5.5000000000000		8.5000000000000		2.4900319563969
5.5000000000000		9.0000000000000		2.4900319563969
5.5000000000000		9.5000000000000		2.4900319563969

6.0000000000000		-9.5000000000000		2.4900383355154
6.0000000000000		-9.0000000000000		2.4900383355154
6.0000000000000		-8.5000000000000		2.4900383355154
6.0000000000000		-8.0000000000000		2.4900383355154
6.0000000000000		-7.5000000000000		2.4900293588031
6.0000000000000		-7.0000000000000		2.4900238018039
6.0000000000000		-6.5000000000000		2.4900362387037
6.0000000000000		-6.0000000000000		2.4901105345889
6.0000000000000		-5.5000000000000		2.4902627220843
6.0000000000000		-5.0000000000000		2.4905107627523
6.0000000000000		-4.5000000000000		2.4907200535228
6.0000000000000		-4.0000000000000		2.4906691061039
6.0000000000000		-3.5000000000000		2.4905292798600
6.0000000000000		-3.0000000000000		2.4903357821767
6.0000000000000		-2.5000000000000		2.4900567938525
6.0000000000000		-2.0000000000000		2.4897709411478
6.0000000000000		-1.5000000000000		2.4894223615582
6.0000000000000		-1.0000000000000		2.4892195789271
6.0000000000000		-0.5000000000000		2.4890512491569
6.0000000000000		0.0000000000000		2.4890178581887
6.0000000000000		0.5000000000000		2.4890512491569
6.0000000000000		1.0000000000000		2.4892195789271
6.0000000000000		1.5000000000000		2.4894223615582
6.0000000000000		2.0000000000000		2.4897709411478
6.0000000000000		2.5000000000000		2.4900567938525
6.0000000000000		3.0000000000000		2.4903357821767
6.0000000000000		3.5000000000000		2.4905292798600
6.0000000000000		4.0000000000000		2.4906691061039
6.0000000000000		4.5000000000000		2.4907200535228
6.0000000000000		5.0000000000000		2.4905107627523
6.0000000000000		5.5000000000000		2.4902627220843
6.0000000000000		6.0000000000000		2.4901105345889
6.0000000000000		6.5000000000000		2.4900362387037
6.0000000000000		7.0000000000000		2.4900238018039
6.0000000000000		7.5000000000000		2.4900293588031
6.0000000000000		8.0000000000000		2.4900383355154
6.0000000000000		8.5000000000000		2.4900383355154
6.0000000000000		9.0000000000000		2.4900383355154
6.0000000000000		9.5000000000000		2.4900383355154

6.5000000000000		-9.5000000000000		2.4900406923034
6.5000000000000		-9.0000000000000		2.4900406923034
6.5000000000000		-8.5000000000000		2.4900406923034
6.5000000000000		-8.0000000000000		2.4900406923034
6.5000000000000		-7.5000000000000		2.4900356430903
6.5000000000000		-7.0000000000000		2.4900283866070
6.5000000000000		-6.5000000000000		2.4900219031090
6.5000000000000		-6.0000000000000		2.4900362387036
6.5000000000000		-5.5000000000000		2.4901048988534
6.5000000000000		-5.0000000000000		2.4902290763546
6.5000000000000		-4.5000000000000		2.4904593145173
6.5000000000000		-4.0000000000000		2.4906587205102
6.5000000000000		-3.5000000000000		2.4906848864699
6.5000000000000		-3.0000000000000		2.4906073824430
6.5000000000000		-2.5000000000000		2.4905026592673
6.5000000000000		-2.0000000000000		2.4903989687350
6.5000000000000		-1.5000000000000		2.4902477717476
6.5000000000000		-1.0000000000000		2.4901385644025
6.5000000000000		-0.5000000000000		2.4900607687061
6.5000000000000		0.0000000000000		2.4900466718802
6.5000000000000		0.5000000000000		2.4900607687061
6.5000000000000		1.0000000000000		2.4901385644025
6.5000000000000		1.5000000000000		2.4902477717476
6.5000000000000		2.0000000000000		2.4903989687350
6.5000000000000		2.5000000000000		2.4905026592673
6.5000000000000		3.0000000000000		2.4906073824430
6.5000000000000		3.5000000000000		2.4906848864699
6.5000000000000		4.0000000000000		2.4906587205102
6.5000000000000		4.5000000000000		2.4904593145173
6.5000000000000		5.0000000000000		2.4902290763546
6.5000000000000		5.5000000000000		2.4901048988534
6.5000000000000		6.0000000000000		2.4900362387036
6.5000000000000		6.5000000000000		2.4900219031090
6.5000000000000		7.0000000000000		2.4900283866070
6.5000000000000		7.5000000000000		2.4900356430903
6.5000000000000		8.0000000000000		2.4900406923034
6.5000000000000		8.5000000000000		2.4900406923034
6.5000000000000		9.0000000000000		2.4900406923034
6.5000000000000		9.5000000000000		2.4900406923034

7.0000000000000		-9.5000000000000		2.4900414329620
7.0000000000000		-9.0000000000000		2.4900414329620
7.0000000000000		-8.5000000000000		2.4900414329620
7.0000000000000		-8.0000000000000		2.4900414329620
7.0000000000000		-7.5000000000000		2.4900404692303
7.0000000000000		-7.0000000000000		2.4900361963984
7.0000000000000		-6.5000000000000		2.4900283866070
7.0000000000000		-6.0000000000000		2.4900238018041
7.0000000000000		-5.5000000000000		2.4900340896565
7.0000000000000		-5.0000000000000		2.4900833881089
7.0000000000000		-4.5000000000000		2.4901875568379
7.0000000000000		-4.0000000000000		2.4903274106209
7.0000000000000		-3.5000000000000		2.4905240367688
7.0000000000000		-3.0000000000000		2.4906369794708
7.0000000000000		-2.5000000000000		2.4906298915552
7.0000000000000		-2.0000000000000		2.4905620536025
7.0000000000000		-1.5000000000000		2.4905024217873
7.0000000000000		-1.0000000000000		2.4904531970865
7.0000000000000		-0.5000000000000		2.4904189871728
7.0000000000000		0.0000000000000		2.4904141598907
7.0000000000000		0.5000000000000		2.4904189871728
7.0000000000000		1.0000000000000		2.4904531970865
7.0000000000000		1.5000000000000		2.4905024217873
7.0000000000000		2.0000000000000		2.4905620536025
7.0000000000000		2.5000000000000		2.4906298915552
7.0000000000000		3.0000000000000		2.4906369794708
7.0000000000000		3.5000000000000		2.4905240367688
7.0000000000000		4.0000000000000		2.4903274106209
7.0000000000000		4.5000000000000		2.4901875568379
7.0000000000000		5.0000000000000		2.4900833881089
7.0000000000000		5.5000000000000		2.4900340896565
7.0000000000000		6.0000000000000		2.4900238018041
7.0000000000000		6.5000000000000		2.4900283866070
7.0000000000000		7.0000000000000		2.4900361963984
7.0000000000000		7.5000000000000		2.4900404692303
7.0000000000000		8.0000000000000		2.4900414329620
7.0000000000000		8.5000000000000		2.4900414329620
7.0000000000000		9.0000000000000		2.4900414329620
7.0000000000000		9.5000000000000		2.4900414329620

7.5000000000000		-9.5000000000000		2.4900415610495
7.5000000000000		-9.0000000000000		2.4900415610495
7.5000000000000		-8.5000000000000		2.4900415610495
7.5000000000000		-8.0000000000000		2.4900415610495
7.5000000000000		-7.5000000000000		2.4900414367120
7.5000000000000		-7.0000000000000		2.4900404692303
7.5000000000000		-6.5000000000000		2.4900356430902
7.5000000000000		-6.0000000000000		2.4900293588031
7.5000000000000		-5.5000000000000		2.4900212691990
7.5000000000000		-5.0000000000000		2.4900260084506
7.5000000000000		-4.5000000000000		2.4900548120657
7.5000000000000		-4.0000000000000		2.4901110431815
7.5000000000000		-3.5000000000000		2.4901975131697
7.5000000000000		-3.0000000000000		2.4903398043455
7.5000000000000		-2.5000000000000		2.4904667966480
7.5000000000000		-2.0000000000000		2.4905658896305
7.5000000000000		-1.5000000000000		2.4906076223781
7.5000000000000		-1.0000000000000		2.4906197906533
7.5000000000000		-0.5000000000000		2.4906027065497
7.5000000000000		0.0000000000000		2.4905966074581
7.5000000000000		0.5000000000000		2.4906027065497
7.5000000000000		1.0000000000000		2.4906197906533
7.5000000000000		1.5000000000000		2.4906076223781
7.5000000000000		2.0000000000000		2.4905658896305
7.5000000000000		2.5000000000000		2.4904667966480
7.5000000000000		3.0000000000000		2.4903398043455
7.5000000000000		3.5000000000000		2.4901975131697
7.5000000000000		4.0000000000000		2.4901110431815
7.5000000000000		4.5000000000000		2.4900548120657
7.5000000000000		5.0000000000000		2.4900260084506
7.5000000000000		5.5000000000000		2.4900212691990
7.5000000000000		6.0000000000000		2.4900293588031
7.5000000000000		6.5000000000000		2.4900356430902
7.5000000000000		7.0000000000000		2.4900404692303
7.5000000000000		7.5000000000000		2.4900414367120
7.5000000000000		8.0000000000000		2.4900415610495
7.5000000000000		8.5000000000000		2.4900415610495
7.5000000000000		9.0000000000000		2.4900415610495
7.5000000000000		9.5000000000000		2.4900415610495

8.0000000000000		-9.5000000000000		2.4900415585833
8.0000000000000		-9.0000000000000		2.4900415585833
8.0000000000000		-8.5000000000000		2.4900415585833
8.0000000000000		-8.0000000000000		2.4900415585833
8.0000000000000		-7.5000000000000		2.4900415610495
8.0000000000000		-7.0000000000000		2.4900414329620
8.0000000000000		-6.5000000000000		2.4900406923033
8.0000000000000		-6.0000000000000		2.4900383355155
8.0000000000000		-5.5000000000000		2.4900319563970
8.0000000000000		-5.0000000000000		2.4900275526022
8.0000000000000		-4.5000000000000		2.4900280122944
8.0000000000000		-4.0000000000000		2.4900431117822
8.0000000000000		-3.5000000000000		2.4900775026901
8.0000000000000		-3.0000000000000		2.4901234586009
8.0000000000000		-2.5000000000000		2.4901779867210
8.0000000000000		-2.0000000000000		2.4902424925570
8.0000000000000		-1.5000000000000		2.4903012100097
8.0000000000000		-1.0000000000000		2.4903344112292
8.0000000000000		-0.5000000000000		2.4903702013676
8.0000000000000		0.0000000000000		2.4903773512043
8.0000000000000		0.5000000000000		2.4903702013676
8.0000000000000		1.0000000000000		2.4903344112292
8.0000000000000		1.5000000000000		2.4903012100097
8.0000000000000		2.0000000000000		2.4902424925570
8.0000000000000		2.5000000000000		2.4901779867210
8.0000000000000		3.0000000000000		2.4901234586009
8.0000000000000		3.5000000000000		2.4900775026901
8.0000000000000		4.0000000000000		2.4900431117822
8.0000000000000		4.5000000000000		2.4900280122944
8.0000000000000		5.0000000000000		2.4900275526022
8.0000000000000		5.5000000000000		2.4900319563970
8.0000000000000		6.0000000000000		2.4900383355155
8.0000000000000		6.5000000000000		2.4900406923033
8.0000000000000		7.0000000000000		2.4900414329620
8.0000000000000		7.5000000000000		2.4900415610495
8.0000000000000		8.0000000000000		2.4900415585833
8.0000000000000		8.5000000000000		2.4900415585833
8.0000000000000		9.0000000000000		2.4900415585833
8.0000000000000		9.5000000000000		2.4900415585833

8.5000000000000		-9.5000000000000		2.4900415585833
8.5000000000000		-9.0000000000000		2.4900415585833
8.5000000000000		-8.5000000000000		2.4900415585833
8.5000000000000		-8.0000000000000		2.4900415585833
8.5000000000000		-7.5000000000000		2.4900415610495
8.5000000000000		-7.0000000000000		2.4900414329620
8.5000000000000		-6.5000000000000		2.4900406923033
8.5000000000000		-6.0000000000000		2.4900383355155
8.5000000000000		-5.5000000000000		2.4900319563970
8.5000000000000		-5.0000000000000		2.4900275526022
8.5000000000000		-4.5000000000000		2.4900280122944
8.5000000000000		-4.0000000000000		2.4900431117822
8.5000000000000		-3.5000000000000		2.4900775026901
8.5000000000000		-3.0000000000000		2.4901234586009
8.5000000000000		-2.5000000000000		2.4901779867210
8.5000000000000		-2.0000000000000		2.4902424925570
8.5000000000000		-1.5000000000000		2.4903012100097
8.5000000000000		-1.0000000000000		2.4903344112292
8.5000000000000		-0.5000000000000		2.4903702013676
8.5000000000000		0.0000000000000		2.4903773512043
8.5000000000000		0.5000000000000		2.4903702013676
8.5000000000000		1.0000000000000		2.4903344112292
8.5000000000000		1.5000000000000		2.4903012100097
8.5000000000000		2.0000000000000		2.4902424925570
8.5000000000000		2.5000000000000		2.4901779867210
8.5000000000000		3.0000000000000		2.4901234586009
8.5000000000000		3.5000000000000		2.4900775026901
8.5000000000000		4.0000000000000		2.4900431117822
8.5000000000000		4.5000000000000		2.4900280122944
8.5000000000000		5.0000000000000		2.4900275526022
8.5000000000000		5.5000000000000		2.4900319563970
8.5000000000000		6.0000000000000		2.4900383355155
8.5000000000000		6.5000000000000		2.4900406923033
8.5000000000000		7.0000000000000		2.4900414329620
8.5000000000000		7.5000000000000		2.4900415610495
8.5000000000000		8.0000000000000		2.4900415585833
8.5000000000000		8.5000000000000		2.4900415585833
8.5000000000000		9.0000000000000		2.4900415585833
8.5000000000000		9.5000000000000		2.4900415585833

9.0000000000000		-9.5000000000000		2.4900415585833
9.0000000000000		-9.0000000000000		2.4900415585833
9.0000000000000		-8.5000000000000		2.4900415585833
9.0000000000000		-8.0000000000000		2.4900415585833
9.0000000000000		-7.5000000000000		2.4900415610495
9.0000000000000		-7.0000000000000		2.4900414329620
9.0000000000000		-6.5000000000000		2.4900406923033
9.0000000000000		-6.0000000000000		2.4900383355155
9.0000000000000		-5.5000000000000		2.4900319563970
9.0000000000000		-5.0000000000000		2.4900275526022
9.0000000000000		-4.5000000000000		2.4900280122944
9.0000000000000		-4.0000000000000		2.4900431117822
9.0000000000000		-3.5000000000000		2.4900775026901
9.0000000000000		-3.0000000000000		2.4901234586009
9.0000000000000		-2.5000000000000		2.4901779867210
9.0000000000000		-2.0000000000000		2.4902424925570
9.0000000000000		-1.5000000000000		2.4903012100097
9.0000000000000		-1.0000000000000		2.4903344112292
9.0000000000000		-0.5000000000000		2.4903702013676
9.0000000000000		0.0000000000000		2.4903773512043
9.0000000000000		0.5000000000000		2.4903702013676
9.0000000000000		1.0000000000000		2.4903344112292
9.0000000000000		1.5000000000000		2.4903012100097
9.0000000000000		2.0000000000000		2.4902424925570
9.0000000000000		2.5000000000000		2.4901779867210
9.0000000000000		3.0000000000000		2.4901234586009
9.0000000000000		3.5000000000000		2.4900775026901
9.0000000000000		4.0000000000000		2.4900431117822
9.0000000000000		4.5000000000000		2.4900280122944
9.0000000000000		5.0000000000000		2.4900275526022
9.0000000000000		5.5000000000000		2.4900319563970
9.0000000000000		6.0000000000000		2.4900383355155
9.0000000000000		6.5000000000000		2.4900406923033
9.0000000000000		7.0000000000000		2.4900414329620
9.0000000000000		7.5000000000000		2.4900415610495
9.0000000000000		8.0000000000000		2.4900415585833
9.0000000000000		8.5000000000000		2.4900415585833
9.0000000000000		9.0000000000000		2.4900415585833
9.0000000000000		9.5000000000000		2.4900415585833

9.5000000000000		-9.5000000000000		2.4900415585833
9.5000000000000		-9.0000000000000		2.4900415585833
9.5000000000000		-8.5000000000000		2.4900415585833
9.5000000000000		-8.0000000000000		2.4900415585833
9.5000000000000		-7.5000000000000		2.4900415610495
9.5000000000000		-7.0000000000000		2.4900414329620
9.5000000000000		-6.5000000000000		2.4900406923033
9.5000000000000		-6.0000000000000		2.4900383355155
9.5000000000000		-5.5000000000000		2.4900319563970
9.5000000000000		-5.0000000000000		2.4900275526022
9.5000000000000		-4.5000000000000		2.4900280122944
9.5000000000000		-4.0000000000000		2.4900431117822
9.5000000000000		-3.5000000000000		2.4900775026901
9.5000000000000		-3.0000000000000		2.4901234586009
9.5000000000000		-2.5000000000000		2.4901779867210
9.5000000000000		-2.0000000000000		2.4902424925570
9.5000000000000		-1.5000000000000		2.4903012100097
9.5000000000000		-1.0000000000000		2.4903344112292
9.5000000000000		-0.5000000000000		2.4903702013676
9.5000000000000		0.0000000000000		2.4903773512043
9.5000000000000		0.5000000000000		2.4903702013676
9.5000000000000		1.0000000000000		2.4903344112292
9.5000000000000		1.5000000000000		2.4903012100097
9.5000000000000		2.0000000000000		2.4902424925570
9.5000000000000		2.5000000000000		2.4901779867210
9.5000000000000		3.0000000000000		2.4901234586009
9.5000000000000		3.5000000000000		2.4900775026901
9.5000000000000		4.0000000000000		2.4900431117822
9.5000000000000		4.5000000000000		2.4900280122944
9.5000000000000		5.0000000000000		2.4900275526022
9.5000000000000		5.5000000000000		2.4900319563970
9.5000000000000		6.0000000000000		2.4900383355155
9.5000000000000		6.5000000000000		2.4900406923033
9.5000000000000		7.0000000000000		2.4900414329620
9.5000000000000		7.5000000000000		2.4900415610495
9.5000000000000		8.0000000000000		2.4900415585833
9.5000000000000		8.5000000000000		2.4900415585833
9.5000000000000		9.0000000000000		2.4900415585833
9.5000000000000		9.5000000000000		2.4900415585833



#Time = 21.8750000000000
-9.5000000000000		-9.5000000000000		2.5152259114571
-9.5000000000000		-9.0000000000000		2.5152259114571
-9.5000000000000		-8.5000000000000		2.5152259114571
-9.5000000000000		-8.0000000000000		2.5152259114571
-9.5000000000000		-7.5000000000000		2.5152242854736
-9.5000000000000		-7.0000000000000		2.5152193541810
-9.5000000000000		-6.5000000000000		2.5152077555412
-9.5000000000000		-6.0000000000000		2.5151923145305
-9.5000000000000		-5.5000000000000		2.5151788235449
-9.5000000000000		-5.0000000000000		2.5151676784091
-9.5000000000000		-4.5000000000000		2.5151694359937
-9.5000000000000		-4.0000000000000		2.5151829200989
-9.5000000000000		-3.5000000000000		2.5152202989519
-9.5000000000000		-3.0000000000000		2.5152815028206
-9.5000000000000		-2.5000000000000		2.5153631422631
-9.5000000000000		-2.0000000000000		2.5154301236126
-9.5000000000000		-1.5000000000000		2.5154974107391
-9.5000000000000		-1.0000000000000		2.5155360912750
-9.5000000000000		-0.5000000000000		2.5155678273688
-9.5000000000000		0.0000000000000		2.5155746146033
-9.5000000000000		0.5000000000000		2.5155678273688
-9.5000000000000		1.0000000000000		2.5155360912750
-9.5000000000000		1.5000000000000		2.5154974107391
-9.5000000000000		2.0000000000000		2.5154301236126
-9.5000000000000		2.5000000000000		2.5153631422631
-9.5000000000000		3.0000000000000		2.5152815028206
-9.5000000000000		3.5000000000000		2.5152202989519
-9.5000000000000		4.0000000000000		2.5151829200989
-9.5000000000000		4.5000000000000		2.5151694359937
-9.5000000000000		5.0000000000000		2.5151676784091
-9.5000000000000		5.5000000000000		2.5151788235449
-9.5000000000000		6.0000000000000		2.5151923145305
-9.5000000000000		6.5000000000000		2.5152077555412
-9.5000000000000		7.0000000000000		2.5152193541810
-9.5000000000000		7.5000000000000		2.5152242854736
-9.5000000000000		8.0000000000000		2.5152259114571
-9.5000000000000		8.5000000000000		2.5152259114571
-9.5000000000000		9.0000000000000		2.5152259114571
-9.5000000000000		9.5000000000000		2.5152259114571

-9.0000000000000		-9.5000000000000		2.5152259114571
-9.0000000000000		-9.0000000000000		2.5152259114571
-9.0000000000000		-8.5000000000000		2.5152259114571
-9.0000000000000		-8.0000000000000		2.5152259114571
-9.0000000000000		-7.5000000000000		2.5152242854736
-9.0000000000000		-7.0000000000000		2.5152193541810
-9.0000000000000		-6.5000000000000		2.5152077555412
-9.0000000000000		-6.0000000000000		2.5151923145305
-9.0000000000000		-5.5000000000000		2.5151788235449
-9.0000000000000		-5.0000000000000		2.5151676784091
-9.0000000000000		-4.5000000000000		2.5151694359937
-9.0000000000000		-4.0000000000000		2.5151829200989
-9.0000000000000		-3.5000000000000		2.5152202989519
-9.0000000000000		-3.0000000000000		2.5152815028206
-9.0000000000000		-2.5000000000000		2.5153631422631
-9.0000000000000		-2.0000000000000		2.5154301236126
-9.0000000000000		-1.5000000000000		2.5154974107391
-9.0000000000000		-1.0000000000000		2.5155360912750
-9.0000000000000		-0.5000000000000		2.5155678273688
-9.0000000000000		0.0000000000000		2.5155746146033
-9.0000000000000		0.5000000000000		2.5155678273688
-9.0000000000000		1.0000000000000		2.5155360912750
-9.0000000000000		1.5000000000000		2.5154974107391
-9.0000000000000		2.0000000000000		2.5154301236126
-9.0000000000000		2.5000000000000		2.5153631422631
-9.0000000000000		3.0000000000000		2.5152815028206
-9.0000000000000		3.5000000000000		2.5152202989519
-9.0000000000000		4.0000000000000		2.5151829200989
-9.0000000000000		4.5000000000000		2.5151694359937
-9.0000000000000		5.0000000000000		2.5151676784091
-9.0000000000000		5.5000000000000		2.5151788235449
-9.0000000000000		6.0000000000000		2.5151923145305
-9.0000000000000		6.5000000000000		2.5152077555412
-9.0000000000000		7.0000000000000		2.5152193541810
-9.0000000000000		7.5000000000000		2.5152242854736
-9.0000000000000		8.0000000000000		2.5152259114571
-9.0000000000000		8.5000000000000		2.5152259114571
-9.0000000000000		9.0000000000000		2.5152259114571
-9.0000000000000		9.5000000000000		2.5152259114571

-8.5000000000000		-9.5000000000000		2.5152259114571
-8.5000000000000		-9.0000000000000		2.5152259114571
-8.5000000000000		-8.5000000000000		2.5152259114571
-8.5000000000000		-8.0000000000000		2.5152259114571
-8.5000000000000		-7.5000000000000		2.5152242854736
-8.5000000000000		-7.0000000000000		2.5152193541810
-8.5000000000000		-6.5000000000000		2.5152077555412
-8.5000000000000		-6.0000000000000		2.5151923145305
-8.5000000000000		-5.5000000000000		2.5151788235449
-8.5000000000000		-5.0000000000000		2.5151676784091
-8.5000000000000		-4.5000000000000		2.5151694359937
-8.5000000000000		-4.0000000000000		2.5151829200989
-8.5000000000000		-3.5000000000000		2.5152202989519
-8.5000000000000		-3.0000000000000		2.5152815028206
-8.5000000000000		-2.5000000000000		2.5153631422631
-8.5000000000000		-2.0000000000000		2.5154301236126
-8.5000000000000		-1.5000000000000		2.5154974107391
-8.5000000000000		-1.0000000000000		2.5155360912750
-8.5000000000000		-0.5000000000000		2.5155678273688
-8.5000000000000		0.0000000000000		2.5155746146033
-8.5000000000000		0.5000000000000		2.5155678273688
-8.5000000000000		1.0000000000000		2.5155360912750
-8.5000000000000		1.5000000000000		2.5154974107391
-8.5000000000000		2.0000000000000		2.5154301236126
-8.5000000000000		2.5000000000000		2.5153631422631
-8.5000000000000		3.0000000000000		2.5152815028206
-8.5000000000000		3.5000000000000		2.5152202989519
-8.5000000000000		4.0000000000000		2.5151829200989
-8.5000000000000		4.5000000000000		2.5151694359937
-8.5000000000000		5.0000000000000		2.5151676784091
-8.5000000000000		5.5000000000000		2.5151788235449
-8.5000000000000		6.0000000000000		2.5151923145305
-8.5000000000000		6.5000000000000		2.5152077555412
-8.5000000000000		7.0000000000000		2.5152193541810
-8.5000000000000		7.5000000000000		2.5152242854736
-8.5000000000000		8.0000000000000		2.5152259114571
-8.5000000000000		8.5000000000000		2.5152259114571
-8.5000000000000		9.0000000000000		2.5152259114571
-8.5000000000000		9.5000000000000		2.5152259114571

-8.0000000000000		-9.5000000000000		2.5152259114571
-8.0000000000000		-9.0000000000000		2.5152259114571
-8.0000000000000		-8.5000000000000		2.5152259114571
-8.0000000000000		-8.0000000000000		2.5152259114571
-8.0000000000000		-7.5000000000000		2.5152242854736
-8.0000000000000		-7.0000000000000		2.5152193541810
-8.0000000000000		-6.5000000000000		2.5152077555412
-8.0000000000000		-6.0000000000000		2.5151923145305
-8.0000000000000		-5.5000000000000		2.5151788235449
-8.0000000000000		-5.0000000000000		2.5151676784091
-8.0000000000000		-4.5000000000000		2.5151694359937
-8.0000000000000		-4.0000000000000		2.5151829200989
-8.0000000000000		-3.5000000000000		2.5152202989519
-8.0000000000000		-3.0000000000000		2.5152815028206
-8.0000000000000		-2.5000000000000		2.5153631422631
-8.0000000000000		-2.0000000000000		2.5154301236126
-8.0000000000000		-1.5000000000000		2.5154974107391
-8.0000000000000		-1.0000000000000		2.5155360912750
-8.0000000000000		-0.5000000000000		2.5155678273688
-8.0000000000000		0.0000000000000		2.5155746146033
-8.0000000000000		0.5000000000000		2.5155678273688
-8.0000000000000		1.0000000000000		2.5155360912750
-8.0000000000000		1.5000000000000		2.5154974107391
-8.0000000000000		2.0000000000000		2.5154301236126
-8.0000000000000		2.5000000000000		2.5153631422631
-8.0000000000000		3.0000000000000		2.5152815028206
-8.0000000000000		3.5000000000000		2.5152202989519
-8.0000000000000		4.0000000000000		2.5151829200989
-8.0000000000000		4.5000000000000		2.5151694359937
-8.0000000000000		5.0000000000000		2.5151676784091
-8.0000000000000		5.5000000000000		2.5151788235449
-8.0000000000000		6.0000000000000		2.5151923145305
-8.0000000000000		6.5000000000000		2.5152077555412
-8.0000000000000		7.0000000000000		2.5152193541810
-8.0000000000000		7.5000000000000		2.5152242854736
-8.0000000000000		8.0000000000000		2.5152259114571
-8.0000000000000		8.5000000000000		2.5152259114571
-8.0000000000000		9.0000000000000		2.5152259114571
-8.0000000000000		9.5000000000000		2.5152259114571

-7.5000000000000		-9.5000000000000		2.5152242854735
-7.5000000000000		-9.0000000000000		2.5152242854735
-7.5000000000000		-8.5000000000000		2.5152242854735
-7.5000000000000		-8.0000000000000		2.5152242854735
-7.5000000000000		-7.5000000000000		2.5152167922914
-7.5000000000000		-7.0000000000000		2.5152061386856
-7.5000000000000		-6.5000000000000		2.5151871065283
-7.5000000000000		-6.0000000000000		2.5151751067428
-7.5000000000000		-5.5000000000000		2.5151633122021
-7.5000000000000		-5.0000000000000		2.5151708974796
-7.5000000000000		-4.5000000000000		2.5152054778879
-7.5000000000000		-4.0000000000000		2.5152742153311
-7.5000000000000		-3.5000000000000		2.5153984630256
-7.5000000000000		-3.0000000000000		2.5155167073100
-7.5000000000000		-2.5000000000000		2.5156285525070
-7.5000000000000		-2.0000000000000		2.5156867432791
-7.5000000000000		-1.5000000000000		2.5157340271051
-7.5000000000000		-1.0000000000000		2.5157508003514
-7.5000000000000		-0.5000000000000		2.5157807622101
-7.5000000000000		0.0000000000000		2.5157871854144
-7.5000000000000		0.5000000000000		2.5157807622101
-7.5000000000000		1.0000000000000		2.5157508003514
-7.5000000000000		1.5000000000000		2.5157340271051
-7.5000000000000		2.0000000000000		2.5156867432791
-7.5000000000000		2.5000000000000		2.5156285525070
-7.5000000000000		3.0000000000000		2.5155167073100
