

#Time = 0.0000000000000
-2.0000000000000		9.5000000000000		2.3850259701655

-1.5000000000000		-9.5000000000000		2.4195660672976
-1.5000000000000		-9.0000000000000		2.4195660672976
-1.5000000000000		-8.5000000000000		2.4195660672976
-1.5000000000000		-8.0000000000000		2.4195660667401
-1.5000000000000		-7.5000000000000		2.4195660611838
-1.5000000000000		-7.0000000000000		2.4195660095085
-1.5000000000000		-6.5000000000000		2.4195655678434
-1.5000000000000		-6.0000000000000		2.4195621188440
-1.5000000000000		-5.5000000000000		2.4195377227720
-1.5000000000000		-5.0000000000000		2.4193831744506
-1.5000000000000		-4.5000000000000		2.4185186064904
-1.5000000000000		-4.0000000000000		2.4143142174085
-1.5000000000000		-3.5000000000000		2.3968269844691
-1.5000000000000		-3.0000000000000		2.3337794949797
-1.5000000000000		-2.5000000000000		2.1427413454560
-1.5000000000000		-2.0000000000000		1.8136876641365
-1.5000000000000		-1.5000000000000		0.0000000100000
-1.5000000000000		-1.0000000000000		0.0000000100000
-1.5000000000000		-0.5000000000000		0.0000000100000
-1.5000000000000		0.0000000000000		0.0000000100000
-1.5000000000000		0.5000000000000		0.0000000100000
-1.5000000000000		1.0000000000000		0.0000000100000
-1.5000000000000		1.5000000000000		0.0000000100000
-1.5000000000000		2.0000000000000		2.3948823375276
-1.5000000000000		2.5000000000000		2.3816715939898
-1.5000000000000		3.0000000000000		2.3944142846886
-1.5000000000000		3.5000000000000		2.4111468219707
-1.5000000000000		4.0000000000000		2.4174177763586
-1.5000000000000		4.5000000000000		2.4191041728675
-1.5000000000000		5.0000000000000		2.4194804784457
-1.5000000000000		5.5000000000000		2.4195521452542
-1.5000000000000		6.0000000000000		2.4195640501495
-1.5000000000000		6.5000000000000		2.4195658039191
-1.5000000000000		7.0000000000000		2.4195660360650
-1.5000000000000		7.5000000000000		2.4195660639468
-1.5000000000000		8.0000000000000		2.4195660670074
-1.5000000000000		8.5000000000000		2.4195660673197
-1.5000000000000		9.0000000000000		2.4195660673197
-1.5000000000000		9.5000000000000		2.4195660673197

-1.0000000000000		-9.5000000000000		2.5343229115644
-1.0000000000000		-9.0000000000000		2.5343229115644
-1.0000000000000		-8.5000000000000		2.5343229115644
-1.0000000000000		-8.0000000000000		2.5343229103618
-1.0000000000000		-7.5000000000000		2.5343228975309
-1.0000000000000		-7.0000000000000		2.5343227697812
-1.0000000000000		-6.5000000000000		2.5343216051517
-1.0000000000000		-6.0000000000000		2.5343119628898
-1.0000000000000		-5.5000000000000		2.5342402634920
-1.0000000000000		-5.0000000000000		2.5337680369720
-1.0000000000000		-4.5000000000000		2.5310601706581
-1.0000000000000		-4.0000000000000		2.5178010285134
-1.0000000000000		-3.5000000000000		2.4632324438978
-1.0000000000000		-3.0000000000000		2.2672090198589
-1.0000000000000		-2.5000000000000		1.9073764724883
-1.0000000000000		-2.0000000000000		0.0000000100000
-1.0000000000000		-1.5000000000000		0.0000000100000
-1.0000000000000		-1.0000000000000		0.0000000100000
-1.0000000000000		-0.5000000000000		0.0000000100000
-1.0000000000000		0.0000000000000		0.0000000100000
-1.0000000000000		0.5000000000000		0.0000000100000
-1.0000000000000		1.0000000000000		0.0000000100000
-1.0000000000000		1.5000000000000		0.0000000100000
-1.0000000000000		2.0000000000000		0.0000000100000
-1.0000000000000		2.5000000000000		2.4846220409792
-1.0000000000000		3.0000000000000		2.4905935461072
-1.0000000000000		3.5000000000000		2.5157717059327
-1.0000000000000		4.0000000000000		2.5295230418539
-1.0000000000000		4.5000000000000		2.5332948460200
-1.0000000000000		5.0000000000000		2.5341353647004
-1.0000000000000		5.5000000000000		2.5342931375909
-1.0000000000000		6.0000000000000		2.5343187287437
-1.0000000000000		6.5000000000000		2.5343223847053
-1.0000000000000		7.0000000000000		2.5343228515063
-1.0000000000000		7.5000000000000		2.5343229053912
-1.0000000000000		8.0000000000000		2.5343229110617
-1.0000000000000		8.5000000000000		2.5343229116168
-1.0000000000000		9.0000000000000		2.5343229116168
-1.0000000000000		9.5000000000000		2.5343229116168

-0.5000000000000		-9.5000000000000		2.7587467524235
-0.5000000000000		-9.0000000000000		2.7587467524235
-0.5000000000000		-8.5000000000000		2.7587467524235
-0.5000000000000		-8.0000000000000		2.7587467512202
-0.5000000000000		-7.5000000000000		2.7587467375950
-0.5000000000000		-7.0000000000000		2.7587465933415
-0.5000000000000		-6.5000000000000		2.7587451919164
-0.5000000000000		-6.0000000000000		2.7587327960740
-0.5000000000000		-5.5000000000000		2.7586340432980
-0.5000000000000		-5.0000000000000		2.7579358120886
-0.5000000000000		-4.5000000000000		2.7536391400344
-0.5000000000000		-4.0000000000000		2.7312048000728
-0.5000000000000		-3.5000000000000		2.6351873495084
-0.5000000000000		-3.0000000000000		2.3210908072087
-0.5000000000000		-2.5000000000000		1.9384443709916
-0.5000000000000		-2.0000000000000		0.0000000100000
-0.5000000000000		-1.5000000000000		0.0000000100000
-0.5000000000000		-1.0000000000000		0.0000000100000
-0.5000000000000		-0.5000000000000		0.0000000100000
-0.5000000000000		0.0000000000000		0.0000000100000
-0.5000000000000		0.5000000000000		0.0000000100000
-0.5000000000000		1.0000000000000		0.0000000100000
-0.5000000000000		1.5000000000000		0.0000000100000
-0.5000000000000		2.0000000000000		0.0000000100000
-0.5000000000000		2.5000000000000		2.7243842072978
-0.5000000000000		3.0000000000000		2.7176089039721
-0.5000000000000		3.5000000000000		2.7391843049472
-0.5000000000000		4.0000000000000		2.7534966849923
-0.5000000000000		4.5000000000000		2.7576285570898
-0.5000000000000		5.0000000000000		2.7585459938387
-0.5000000000000		5.5000000000000		2.7587156109877
-0.5000000000000		6.0000000000000		2.7587425007499
-0.5000000000000		6.5000000000000		2.7587462341860
-0.5000000000000		7.0000000000000		2.7587466954340
-0.5000000000000		7.5000000000000		2.7587467467851
-0.5000000000000		8.0000000000000		2.7587467519858
-0.5000000000000		8.5000000000000		2.7587467524763
-0.5000000000000		9.0000000000000		2.7587467524763
-0.5000000000000		9.5000000000000		2.7587467524763

0.0000000000000		-9.5000000000000		2.8799844398663
0.0000000000000		-9.0000000000000		2.8799844398663
0.0000000000000		-8.5000000000000		2.8799844398663
0.0000000000000		-8.0000000000000		2.8799844393250
0.0000000000000		-7.5000000000000		2.8799844327169
0.0000000000000		-7.0000000000000		2.8799843576904
0.0000000000000		-6.5000000000000		2.8799835825332
0.0000000000000		-6.0000000000000		2.8799763433038
0.0000000000000		-5.5000000000000		2.8799157713635
0.0000000000000		-5.0000000000000		2.8794668289410
0.0000000000000		-4.5000000000000		2.8765593666428
0.0000000000000		-4.0000000000000		2.8603523950614
0.0000000000000		-3.5000000000000		2.7840010749783
0.0000000000000		-3.0000000000000		2.4807751700603
0.0000000000000		-2.5000000000000		2.0939927373672
0.0000000000000		-2.0000000000000		0.0000000100000
0.0000000000000		-1.5000000000000		0.0000000100000
0.0000000000000		-1.0000000000000		0.0000000100000
0.0000000000000		-0.5000000000000		0.0000000100000
0.0000000000000		0.0000000000000		0.0000000100000
0.0000000000000		0.5000000000000		0.0000000100000
0.0000000000000		1.0000000000000		0.0000000100000
0.0000000000000		1.5000000000000		0.0000000100000
0.0000000000000		2.0000000000000		0.0000000100000
0.0000000000000		2.5000000000000		2.8628770025958
0.0000000000000		3.0000000000000		2.8586448979065
0.0000000000000		3.5000000000000		2.8684753125689
0.0000000000000		4.0000000000000		2.8768814557549
0.0000000000000		4.5000000000000		2.8793398239237
0.0000000000000		5.0000000000000		2.8798724775023
0.0000000000000		5.5000000000000		2.8799677327448
0.0000000000000		6.0000000000000		2.8799822582853
0.0000000000000		6.5000000000000		2.8799841869715
0.0000000000000		7.0000000000000		2.8799844135463
0.0000000000000		7.5000000000000		2.8799844374096
0.0000000000000		8.0000000000000		2.8799844396869
0.0000000000000		8.5000000000000		2.8799844398887
0.0000000000000		9.0000000000000		2.8799844398887
0.0000000000000		9.5000000000000		2.8799844398887

0.5000000000000		-9.5000000000000		2.6313961423186
0.5000000000000		-9.0000000000000		2.6313961423186
0.5000000000000		-8.5000000000000		2.6313961423186
0.5000000000000		-8.0000000000000		2.6313961421146
0.5000000000000		-7.5000000000000		2.6313961395496
0.5000000000000		-7.0000000000000		2.6313961092608
0.5000000000000		-6.5000000000000		2.6313957811970
0.5000000000000		-6.0000000000000		2.6313925618157
0.5000000000000		-5.5000000000000		2.6313642784525
0.5000000000000		-5.0000000000000		2.6311444401858
0.5000000000000		-4.5000000000000		2.6296499278305
0.5000000000000		-4.0000000000000		2.6208427342964
0.5000000000000		-3.5000000000000		2.5760903081161
0.5000000000000		-3.0000000000000		2.3773292022169
0.5000000000000		-2.5000000000000		2.0483336558607
0.5000000000000		-2.0000000000000		0.0000000100000
0.5000000000000		-1.5000000000000		0.0000000100000
0.5000000000000		-1.0000000000000		0.0000000100000
0.5000000000000		-0.5000000000000		0.0000000100000
0.5000000000000		0.0000000000000		0.0000000100000
0.5000000000000		0.5000000000000		0.0000000100000
0.5000000000000		1.0000000000000		0.0000000100000
0.5000000000000		1.5000000000000		0.0000000100000
0.5000000000000		2.0000000000000		0.0000000100000
0.5000000000000		2.5000000000000		2.6160536566799
0.5000000000000		3.0000000000000		2.6192909332520
0.5000000000000		3.5000000000000		2.6243009342369
0.5000000000000		4.0000000000000		2.6296975047658
0.5000000000000		4.5000000000000		2.6310658140979
0.5000000000000		5.0000000000000		2.6313417650642
0.5000000000000		5.5000000000000		2.6313883924006
0.5000000000000		6.0000000000000		2.6313951707145
0.5000000000000		6.5000000000000		2.6313960336281
0.5000000000000		7.0000000000000		2.6313961313573
0.5000000000000		7.5000000000000		2.6313961413243
0.5000000000000		8.0000000000000		2.6313961422473
0.5000000000000		8.5000000000000		2.6313961423267
0.5000000000000		9.0000000000000		2.6313961423267
0.5000000000000		9.5000000000000		2.6313961423267

1.0000000000000		-9.5000000000000		1.6564499931618
1.0000000000000		-9.0000000000000		1.6564499931618
1.0000000000000		-8.5000000000000		1.6564499931618
1.0000000000000		-8.0000000000000		1.6564499931405
1.0000000000000		-7.5000000000000		1.6564499928385
1.0000000000000		-7.0000000000000		1.6564499888695
1.0000000000000		-6.5000000000000		1.6564499406680
1.0000000000000		-6.0000000000000		1.6564494067486
1.0000000000000		-5.5000000000000		1.6564440969366
1.0000000000000		-5.0000000000000		1.6563973805418
1.0000000000000		-4.5000000000000		1.6560381394172
1.0000000000000		-4.0000000000000		1.6536449917135
1.0000000000000		-3.5000000000000		1.6400500695630
1.0000000000000		-3.0000000000000		1.5726704239806
1.0000000000000		-2.5000000000000		1.4081834767190
1.0000000000000		-2.0000000000000		0.0000000100000
1.0000000000000		-1.5000000000000		0.0000000100000
1.0000000000000		-1.0000000000000		0.0000000100000
1.0000000000000		-0.5000000000000		0.0000000100000
1.0000000000000		0.0000000000000		0.0000000100000
1.0000000000000		0.5000000000000		0.0000000100000
1.0000000000000		1.0000000000000		0.0000000100000
1.0000000000000		1.5000000000000		0.0000000100000
1.0000000000000		2.0000000000000		0.0000000100000
1.0000000000000		2.5000000000000		1.6400265462413
1.0000000000000		3.0000000000000		1.6483925297385
1.0000000000000		3.5000000000000		1.6535910904896
1.0000000000000		4.0000000000000		1.6559107590632
1.0000000000000		4.5000000000000		1.6563607941875
1.0000000000000		5.0000000000000		1.6564372956017
1.0000000000000		5.5000000000000		1.6564484114011
1.0000000000000		6.0000000000000		1.6564498184636
1.0000000000000		6.5000000000000		1.6564499758532
1.0000000000000		7.0000000000000		1.6564499916103
1.0000000000000		7.5000000000000		1.6564499930362
1.0000000000000		8.0000000000000		1.6564499931537
1.0000000000000		8.5000000000000		1.6564499931627
1.0000000000000		9.0000000000000		1.6564499931627
1.0000000000000		9.5000000000000		1.6564499931627

1.5000000000000		-9.5000000000000		1.0579401530222
1.5000000000000		-9.0000000000000		1.0579401530222
1.5000000000000		-8.5000000000000		1.0579401530222
1.5000000000000		-8.0000000000000		1.0579401530208
1.5000000000000		-7.5000000000000		1.0579401529989
1.5000000000000		-7.0000000000000		1.0579401526988
1.5000000000000		-6.5000000000000		1.0579401489023
1.5000000000000		-6.0000000000000		1.0579401050131
1.5000000000000		-5.5000000000000		1.0579396467012
1.5000000000000		-5.0000000000000		1.0579353891278
1.5000000000000		-4.5000000000000		1.0579008160814
1.5000000000000		-4.0000000000000		1.0576602901102
1.5000000000000		-3.5000000000000		1.0562681853497
1.5000000000000		-3.0000000000000		1.0496944304864
1.5000000000000		-2.5000000000000		1.0382296753316
1.5000000000000		-2.0000000000000		0.9962827700207
1.5000000000000		-1.5000000000000		0.0000000100000
1.5000000000000		-1.0000000000000		0.0000000100000
1.5000000000000		-0.5000000000000		0.0000000100000
1.5000000000000		0.0000000000000		0.0000000100000
1.5000000000000		0.5000000000000		0.0000000100000
1.5000000000000		1.0000000000000		0.0000000100000
1.5000000000000		1.5000000000000		0.0000000100000
1.5000000000000		2.0000000000000		1.0002449887411
1.5000000000000		2.5000000000000		1.0552254268852
1.5000000000000		3.0000000000000		1.0567246419246
1.5000000000000		3.5000000000000		1.0576223619573
1.5000000000000		4.0000000000000		1.0578816467126
1.5000000000000		4.5000000000000		1.0579309512798
1.5000000000000		5.0000000000000		1.0579389150976
1.5000000000000		5.5000000000000		1.0579400076259
1.5000000000000		6.0000000000000		1.0579401378703
1.5000000000000		6.5000000000000		1.0579401516035
1.5000000000000		7.0000000000000		1.0579401529017
1.5000000000000		7.5000000000000		1.0579401530129
1.5000000000000		8.0000000000000		1.0579401530216
1.5000000000000		8.5000000000000		1.0579401530223
1.5000000000000		9.0000000000000		1.0579401530223
1.5000000000000		9.5000000000000		1.0579401530223

2.0000000000000		-9.5000000000000		1.0017446553489
2.0000000000000		-9.0000000000000		1.0017446553489
2.0000000000000		-8.5000000000000		1.0017446553489
2.0000000000000		-8.0000000000000		1.0017446553489
2.0000000000000		-7.5000000000000		1.0017446553483
2.0000000000000		-7.0000000000000		1.0017446553391
2.0000000000000		-6.5000000000000		1.0017446552191
2.0000000000000		-6.0000000000000		1.0017446537764
2.0000000000000		-5.5000000000000		1.0017446381149
2.0000000000000		-5.0000000000000		1.0017444867996
2.0000000000000		-4.5000000000000		1.0017432100342
2.0000000000000		-4.0000000000000		1.0017340221402
2.0000000000000		-3.5000000000000		1.0016795367753
2.0000000000000		-3.0000000000000		1.0014265377885
2.0000000000000		-2.5000000000000		1.0010409504189
2.0000000000000		-2.0000000000000		0.9999745166595
2.0000000000000		-1.5000000000000		0.9961462299521
2.0000000000000		-1.0000000000000		0.0000000100000
2.0000000000000		-0.5000000000000		0.0000000100000
2.0000000000000		0.0000000000000		0.0000000100000
2.0000000000000		0.5000000000000		0.0000000100000
2.0000000000000		1.0000000000000		0.0000000100000
2.0000000000000		1.5000000000000		1.0000000121287
2.0000000000000		2.0000000000000		1.0000061235103
2.0000000000000		2.5000000000000		1.0016332672438
2.0000000000000		3.0000000000000		1.0016930726389
2.0000000000000		3.5000000000000		1.0017318446952
2.0000000000000		4.0000000000000		1.0017423649103
2.0000000000000		4.5000000000000		1.0017443068075
2.0000000000000		5.0000000000000		1.0017446101283
2.0000000000000		5.5000000000000		1.0017446502388
2.0000000000000		6.0000000000000		1.0017446548371
2.0000000000000		6.5000000000000		1.0017446553029
2.0000000000000		7.0000000000000		1.0017446553454
2.0000000000000		7.5000000000000		1.0017446553487
2.0000000000000		8.0000000000000		1.0017446553490
2.0000000000000		8.5000000000000		1.0017446553489
2.0000000000000		9.0000000000000		1.0017446553489
2.0000000000000		9.5000000000000		1.0017446553489

2.5000000000000		-9.5000000000000		1.0000115223966
2.5000000000000		-9.0000000000000		1.0000115223966
2.5000000000000		-8.5000000000000		1.0000115223966
2.5000000000000		-8.0000000000000		1.0000115223966
2.5000000000000		-7.5000000000000		1.0000115223966
2.5000000000000		-7.0000000000000		1.0000115223965
2.5000000000000		-6.5000000000000		1.0000115223956
2.5000000000000		-6.0000000000000		1.0000115223841
2.5000000000000		-5.5000000000000		1.0000115222556
2.5000000000000		-5.0000000000000		1.0000115209746
2.5000000000000		-4.5000000000000		1.0000115098615
2.5000000000000		-4.0000000000000		1.0000114279023
2.5000000000000		-3.5000000000000		1.0000109344276
2.5000000000000		-3.0000000000000		1.0000086952521
2.5000000000000		-2.5000000000000		1.0000055960218
2.5000000000000		-2.0000000000000		0.9999999386460
2.5000000000000		-1.5000000000000		0.9999925347990
2.5000000000000		-1.0000000000000		1.0000000061633
2.5000000000000		-0.5000000000000		0.9999999999779
2.5000000000000		0.0000000000000		1.0000000000000
2.5000000000000		0.5000000000000		1.0000000000000
2.5000000000000		1.0000000000000		0.9999999999785
2.5000000000000		1.5000000000000		1.0000000000019
2.5000000000000		2.0000000000000		1.0000000268131
2.5000000000000		2.5000000000000		1.0000104772901
2.5000000000000		3.0000000000000		1.0000110358028
2.5000000000000		3.5000000000000		1.0000114046749
2.5000000000000		4.0000000000000		1.0000115017799
2.5000000000000		4.5000000000000		1.0000115193327
2.5000000000000		5.0000000000000		1.0000115220095
2.5000000000000		5.5000000000000		1.0000115223541
2.5000000000000		6.0000000000000		1.0000115223925
2.5000000000000		6.5000000000000		1.0000115223962
2.5000000000000		7.0000000000000		1.0000115223966
2.5000000000000		7.5000000000000		1.0000115223966
2.5000000000000		8.0000000000000		1.0000115223966
2.5000000000000		8.5000000000000		1.0000115223966
2.5000000000000		9.0000000000000		1.0000115223966
2.5000000000000		9.5000000000000		1.0000115223966

3.0000000000000		-9.5000000000000		1.0000000070671
3.0000000000000		-9.0000000000000		1.0000000070671
3.0000000000000		-8.5000000000000		1.0000000070671
3.0000000000000		-8.0000000000000		1.0000000070671
3.0000000000000		-7.5000000000000		1.0000000070671
3.0000000000000		-7.0000000000000		1.0000000070671
3.0000000000000		-6.5000000000000		1.0000000070671
3.0000000000000		-6.0000000000000		1.0000000070671
3.0000000000000		-5.5000000000000		1.0000000070669
3.0000000000000		-5.0000000000000		1.0000000070659
3.0000000000000		-4.5000000000000		1.0000000070567
3.0000000000000		-4.0000000000000		1.0000000069871
3.0000000000000		-3.5000000000000		1.0000000065643
3.0000000000000		-3.0000000000000		1.0000000047260
3.0000000000000		-2.5000000000000		1.0000000025019
3.0000000000000		-2.0000000000000		0.9999999998631
3.0000000000000		-1.5000000000000		0.9999999685012
3.0000000000000		-1.0000000000000		0.9999999999567
3.0000000000000		-0.5000000000000		1.0000000000000
3.0000000000000		0.0000000000000		1.0000000000000
3.0000000000000		0.5000000000000		1.0000000000000
3.0000000000000		1.0000000000000		1.0000000000000
3.0000000000000		1.5000000000000		1.0000000000000
3.0000000000000		2.0000000000000		1.0000000000022
3.0000000000000		2.5000000000000		1.0000000061478
3.0000000000000		3.0000000000000		1.0000000066373
3.0000000000000		3.5000000000000		1.0000000069648
3.0000000000000		4.0000000000000		1.0000000070495
3.0000000000000		4.5000000000000		1.0000000070645
3.0000000000000		5.0000000000000		1.0000000070668
3.0000000000000		5.5000000000000		1.0000000070671
3.0000000000000		6.0000000000000		1.0000000070671
3.0000000000000		6.5000000000000		1.0000000070671
3.0000000000000		7.0000000000000		1.0000000070671
3.0000000000000		7.5000000000000		1.0000000070671
3.0000000000000		8.0000000000000		1.0000000070671
3.0000000000000		8.5000000000000		1.0000000070671
3.0000000000000		9.0000000000000		1.0000000070671
3.0000000000000		9.5000000000000		1.0000000070671

3.5000000000000		-9.5000000000000		1.0000000000004
3.5000000000000		-9.0000000000000		1.0000000000004
3.5000000000000		-8.5000000000000		1.0000000000004
3.5000000000000		-8.0000000000000		1.0000000000004
3.5000000000000		-7.5000000000000		1.0000000000004
3.5000000000000		-7.0000000000000		1.0000000000004
3.5000000000000		-6.5000000000000		1.0000000000004
3.5000000000000		-6.0000000000000		1.0000000000004
3.5000000000000		-5.5000000000000		1.0000000000004
3.5000000000000		-5.0000000000000		1.0000000000004
3.5000000000000		-4.5000000000000		1.0000000000004
3.5000000000000		-4.0000000000000		1.0000000000004
3.5000000000000		-3.5000000000000		1.0000000000004
3.5000000000000		-3.0000000000000		1.0000000000002
3.5000000000000		-2.5000000000000		1.0000000000001
3.5000000000000		-2.0000000000000		0.9999999999999
3.5000000000000		-1.5000000000000		0.9999999999606
3.5000000000000		-1.0000000000000		1.0000000000000
3.5000000000000		-0.5000000000000		1.0000000000000
3.5000000000000		0.0000000000000		1.0000000000000
3.5000000000000		0.5000000000000		1.0000000000000
3.5000000000000		1.0000000000000		1.0000000000000
3.5000000000000		1.5000000000000		1.0000000000000
3.5000000000000		2.0000000000000		1.0000000000000
3.5000000000000		2.5000000000000		1.0000000000003
3.5000000000000		3.0000000000000		1.0000000000003
3.5000000000000		3.5000000000000		1.0000000000004
3.5000000000000		4.0000000000000		1.0000000000004
3.5000000000000		4.5000000000000		1.0000000000004
3.5000000000000		5.0000000000000		1.0000000000004
3.5000000000000		5.5000000000000		1.0000000000004
3.5000000000000		6.0000000000000		1.0000000000004
3.5000000000000		6.5000000000000		1.0000000000004
3.5000000000000		7.0000000000000		1.0000000000004
3.5000000000000		7.5000000000000		1.0000000000004
3.5000000000000		8.0000000000000		1.0000000000004
3.5000000000000		8.5000000000000		1.0000000000004
3.5000000000000		9.0000000000000		1.0000000000004
3.5000000000000		9.5000000000000		1.0000000000004

4.0000000000000		-9.5000000000000		1.0000000000000
4.0000000000000		-9.0000000000000		1.0000000000000
4.0000000000000		-8.5000000000000		1.0000000000000
4.0000000000000		-8.0000000000000		1.0000000000000
4.0000000000000		-7.5000000000000		1.0000000000000
4.0000000000000		-7.0000000000000		1.0000000000000
4.0000000000000		-6.5000000000000		1.0000000000000
4.0000000000000		-6.0000000000000		1.0000000000000
4.0000000000000		-5.5000000000000		1.0000000000000
4.0000000000000		-5.0000000000000		1.0000000000000
4.0000000000000		-4.5000000000000		1.0000000000000
4.0000000000000		-4.0000000000000		1.0000000000000
4.0000000000000		-3.5000000000000		1.0000000000000
4.0000000000000		-3.0000000000000		1.0000000000000
4.0000000000000		-2.5000000000000		1.0000000000000
4.0000000000000		-2.0000000000000		0.9999999999999
4.0000000000000		-1.5000000000000		1.0000000000000
4.0000000000000		-1.0000000000000		1.0000000000000
4.0000000000000		-0.5000000000000		1.0000000000000
4.0000000000000		0.0000000000000		0.9999999999999
4.0000000000000		0.5000000000000		1.0000000000000
4.0000000000000		1.0000000000000		1.0000000000000
4.0000000000000		1.5000000000000		1.0000000000000
4.0000000000000		2.0000000000000		1.0000000000000
4.0000000000000		2.5000000000000		1.0000000000000
4.0000000000000		3.0000000000000		1.0000000000000
4.0000000000000		3.5000000000000		1.0000000000000
4.0000000000000		4.0000000000000		1.0000000000000
4.0000000000000		4.5000000000000		1.0000000000000
4.0000000000000		5.0000000000000		1.0000000000000
4.0000000000000		5.5000000000000		1.0000000000000
4.0000000000000		6.0000000000000		1.0000000000000
4.0000000000000		6.5000000000000		1.0000000000000
4.0000000000000		7.0000000000000		1.0000000000000
4.0000000000000		7.5000000000000		1.0000000000000
4.0000000000000		8.0000000000000		1.0000000000000
4.0000000000000		8.5000000000000		1.0000000000000
4.0000000000000		9.0000000000000		1.0000000000000
4.0000000000000		9.5000000000000		1.0000000000000

4.5000000000000		-9.5000000000000		1.0000000000000
4.5000000000000		-9.0000000000000		1.0000000000000
4.5000000000000		-8.5000000000000		1.0000000000000
4.5000000000000		-8.0000000000000		1.0000000000000
4.5000000000000		-7.5000000000000		1.0000000000000
4.5000000000000		-7.0000000000000		1.0000000000000
4.5000000000000		-6.5000000000000		1.0000000000000
4.5000000000000		-6.0000000000000		1.0000000000000
4.5000000000000		-5.5000000000000		1.0000000000000
4.5000000000000		-5.0000000000000		1.0000000000000
4.5000000000000		-4.5000000000000		1.0000000000000
4.5000000000000		-4.0000000000000		1.0000000000000
4.5000000000000		-3.5000000000000		1.0000000000000
4.5000000000000		-3.0000000000000		1.0000000000000
4.5000000000000		-2.5000000000000		1.0000000000000
4.5000000000000		-2.0000000000000		1.0000000000000
4.5000000000000		-1.5000000000000		1.0000000000000
4.5000000000000		-1.0000000000000		1.0000000000000
4.5000000000000		-0.5000000000000		1.0000000000000
4.5000000000000		0.0000000000000		1.0000000000000
4.5000000000000		0.5000000000000		1.0000000000000
4.5000000000000		1.0000000000000		1.0000000000000
4.5000000000000		1.5000000000000		1.0000000000000
4.5000000000000		2.0000000000000		1.0000000000000
4.5000000000000		2.5000000000000		1.0000000000000
4.5000000000000		3.0000000000000		1.0000000000000
4.5000000000000		3.5000000000000		1.0000000000000
4.5000000000000		4.0000000000000		1.0000000000000
4.5000000000000		4.5000000000000		1.0000000000000
4.5000000000000		5.0000000000000		1.0000000000000
4.5000000000000		5.5000000000000		1.0000000000000
4.5000000000000		6.0000000000000		1.0000000000000
4.5000000000000		6.5000000000000		1.0000000000000
4.5000000000000		7.0000000000000		1.0000000000000
4.5000000000000		7.5000000000000		1.0000000000000
4.5000000000000		8.0000000000000		1.0000000000000
4.5000000000000		8.5000000000000		1.0000000000000
4.5000000000000		9.0000000000000		1.0000000000000
4.5000000000000		9.5000000000000		1.0000000000000

5.0000000000000		-9.5000000000000		1.0000000000000
5.0000000000000		-9.0000000000000		1.0000000000000
5.0000000000000		-8.5000000000000		1.0000000000000
5.0000000000000		-8.0000000000000		1.0000000000000
5.0000000000000		-7.5000000000000		1.0000000000000
5.0000000000000		-7.0000000000000		1.0000000000000
5.0000000000000		-6.5000000000000		1.0000000000000
5.0000000000000		-6.0000000000000		1.0000000000000
5.0000000000000		-5.5000000000000		1.0000000000000
5.0000000000000		-5.0000000000000		1.0000000000000
5.0000000000000		-4.5000000000000		1.0000000000000
5.0000000000000		-4.0000000000000		1.0000000000000
5.0000000000000		-3.5000000000000		0.9999999999999
5.0000000000000		-3.0000000000000		1.0000000000000
5.0000000000000		-2.5000000000000		1.0000000000000
5.0000000000000		-2.0000000000000		1.0000000000000
5.0000000000000		-1.5000000000000		1.0000000000000
5.0000000000000		-1.0000000000000		1.0000000000000
5.0000000000000		-0.5000000000000		1.0000000000000
5.0000000000000		0.0000000000000		1.0000000000000
5.0000000000000		0.5000000000000		1.0000000000000
5.0000000000000		1.0000000000000		1.0000000000000
5.0000000000000		1.5000000000000		1.0000000000000
5.0000000000000		2.0000000000000		1.0000000000000
5.0000000000000		2.5000000000000		1.0000000000000
5.0000000000000		3.0000000000000		1.0000000000000
5.0000000000000		3.5000000000000		1.0000000000000
5.0000000000000		4.0000000000000		1.0000000000000
5.0000000000000		4.5000000000000		1.0000000000000
5.0000000000000		5.0000000000000		1.0000000000000
5.0000000000000		5.5000000000000		0.9999999999999
5.0000000000000		6.0000000000000		1.0000000000000
5.0000000000000		6.5000000000000		1.0000000000000
5.0000000000000		7.0000000000000		1.0000000000000
5.0000000000000		7.5000000000000		1.0000000000000
5.0000000000000		8.0000000000000		1.0000000000000
5.0000000000000		8.5000000000000		1.0000000000000
5.0000000000000		9.0000000000000		1.0000000000000
5.0000000000000		9.5000000000000		1.0000000000000

5.5000000000000		-9.5000000000000		0.9999999999999
5.5000000000000		-9.0000000000000		0.9999999999999
5.5000000000000		-8.5000000000000		0.9999999999999
5.5000000000000		-8.0000000000000		1.0000000000000
5.5000000000000		-7.5000000000000		1.0000000000000
5.5000000000000		-7.0000000000000		1.0000000000000
5.5000000000000		-6.5000000000000		1.0000000000000
5.5000000000000		-6.0000000000000		1.0000000000000
5.5000000000000		-5.5000000000000		1.0000000000000
5.5000000000000		-5.0000000000000		1.0000000000000
5.5000000000000		-4.5000000000000		0.9999999999999
5.5000000000000		-4.0000000000000		1.0000000000000
5.5000000000000		-3.5000000000000		1.0000000000000
5.5000000000000		-3.0000000000000		1.0000000000000
5.5000000000000		-2.5000000000000		1.0000000000000
5.5000000000000		-2.0000000000000		1.0000000000000
5.5000000000000		-1.5000000000000		1.0000000000000
5.5000000000000		-1.0000000000000		1.0000000000000
5.5000000000000		-0.5000000000000		1.0000000000000
5.5000000000000		0.0000000000000		0.9999999999999
5.5000000000000		0.5000000000000		1.0000000000000
5.5000000000000		1.0000000000000		1.0000000000000
5.5000000000000		1.5000000000000		1.0000000000000
5.5000000000000		2.0000000000000		1.0000000000000
5.5000000000000		2.5000000000000		1.0000000000000
5.5000000000000		3.0000000000000		0.9999999999999
5.5000000000000		3.5000000000000		1.0000000000000
5.5000000000000		4.0000000000000		1.0000000000000
5.5000000000000		4.5000000000000		1.0000000000000
5.5000000000000		5.0000000000000		1.0000000000000
5.5000000000000		5.5000000000000		1.0000000000000
5.5000000000000		6.0000000000000		1.0000000000000
5.5000000000000		6.5000000000000		1.0000000000000
5.5000000000000		7.0000000000000		1.0000000000000
5.5000000000000		7.5000000000000		1.0000000000000
5.5000000000000		8.0000000000000		1.0000000000000
5.5000000000000		8.5000000000000		1.0000000000000
5.5000000000000		9.0000000000000		1.0000000000000
5.5000000000000		9.5000000000000		1.0000000000000

6.0000000000000		-9.5000000000000		1.0000000000000
6.0000000000000		-9.0000000000000		1.0000000000000
6.0000000000000		-8.5000000000000		1.0000000000000
6.0000000000000		-8.0000000000000		1.0000000000000
6.0000000000000		-7.5000000000000		1.0000000000000
6.0000000000000		-7.0000000000000		1.0000000000000
6.0000000000000		-6.5000000000000		1.0000000000000
6.0000000000000		-6.0000000000000		1.0000000000000
6.0000000000000		-5.5000000000000		1.0000000000000
6.0000000000000		-5.0000000000000		0.9999999999999
6.0000000000000		-4.5000000000000		1.0000000000000
6.0000000000000		-4.0000000000000		1.0000000000000
6.0000000000000		-3.5000000000000		1.0000000000000
6.0000000000000		-3.0000000000000		1.0000000000000
6.0000000000000		-2.5000000000000		1.0000000000000
6.0000000000000		-2.0000000000000		1.0000000000000
6.0000000000000		-1.5000000000000		1.0000000000000
6.0000000000000		-1.0000000000000		1.0000000000000
6.0000000000000		-0.5000000000000		1.0000000000000
6.0000000000000		0.0000000000000		1.0000000000000
6.0000000000000		0.5000000000000		1.0000000000000
6.0000000000000		1.0000000000000		1.0000000000000
6.0000000000000		1.5000000000000		1.0000000000000
6.0000000000000		2.0000000000000		1.0000000000000
6.0000000000000		2.5000000000000		1.0000000000000
6.0000000000000		3.0000000000000		1.0000000000000
6.0000000000000		3.5000000000000		1.0000000000000
6.0000000000000		4.0000000000000		1.0000000000000
6.0000000000000		4.5000000000000		1.0000000000000
6.0000000000000		5.0000000000000		1.0000000000000
6.0000000000000		5.5000000000000		1.0000000000000
6.0000000000000		6.0000000000000		1.0000000000000
6.0000000000000		6.5000000000000		1.0000000000000
6.0000000000000		7.0000000000000		1.0000000000000
6.0000000000000		7.5000000000000		1.0000000000000
6.0000000000000		8.0000000000000		1.0000000000000
6.0000000000000		8.5000000000000		1.0000000000000
6.0000000000000		9.0000000000000		1.0000000000000
6.0000000000000		9.5000000000000		1.0000000000000

6.5000000000000		-9.5000000000000		1.0000000000000
6.5000000000000		-9.0000000000000		1.0000000000000
6.5000000000000		-8.5000000000000		1.0000000000000
6.5000000000000		-8.0000000000000		1.0000000000000
6.5000000000000		-7.5000000000000		1.0000000000000
6.5000000000000		-7.0000000000000		1.0000000000000
6.5000000000000		-6.5000000000000		1.0000000000000
6.5000000000000		-6.0000000000000		1.0000000000000
6.5000000000000		-5.5000000000000		1.0000000000000
6.5000000000000		-5.0000000000000		1.0000000000000
6.5000000000000		-4.5000000000000		1.0000000000000
6.5000000000000		-4.0000000000000		1.0000000000000
6.5000000000000		-3.5000000000000		1.0000000000000
6.5000000000000		-3.0000000000000		1.0000000000000
6.5000000000000		-2.5000000000000		1.0000000000000
6.5000000000000		-2.0000000000000		1.0000000000000
6.5000000000000		-1.5000000000000		1.0000000000000
6.5000000000000		-1.0000000000000		1.0000000000000
6.5000000000000		-0.5000000000000		1.0000000000000
6.5000000000000		0.0000000000000		1.0000000000000
6.5000000000000		0.5000000000000		1.0000000000000
6.5000000000000		1.0000000000000		1.0000000000000
6.5000000000000		1.5000000000000		1.0000000000000
6.5000000000000		2.0000000000000		1.0000000000000
6.5000000000000		2.5000000000000		1.0000000000000
6.5000000000000		3.0000000000000		1.0000000000000
6.5000000000000		3.5000000000000		1.0000000000000
6.5000000000000		4.0000000000000		1.0000000000000
6.5000000000000		4.5000000000000		1.0000000000000
6.5000000000000		5.0000000000000		1.0000000000000
6.5000000000000		5.5000000000000		1.0000000000000
6.5000000000000		6.0000000000000		1.0000000000000
6.5000000000000		6.5000000000000		1.0000000000000
6.5000000000000		7.0000000000000		1.0000000000000
6.5000000000000		7.5000000000000		1.0000000000000
6.5000000000000		8.0000000000000		1.0000000000000
6.5000000000000		8.5000000000000		0.9999999999999
6.5000000000000		9.0000000000000		0.9999999999999
6.5000000000000		9.5000000000000		0.9999999999999

7.0000000000000		-9.5000000000000		1.0000000000000
7.0000000000000		-9.0000000000000		1.0000000000000
7.0000000000000		-8.5000000000000		1.0000000000000
7.0000000000000		-8.0000000000000		1.0000000000000
7.0000000000000		-7.5000000000000		1.0000000000000
7.0000000000000		-7.0000000000000		1.0000000000000
7.0000000000000		-6.5000000000000		1.0000000000000
7.0000000000000		-6.0000000000000		1.0000000000000
7.0000000000000		-5.5000000000000		1.0000000000000
7.0000000000000		-5.0000000000000		1.0000000000000
7.0000000000000		-4.5000000000000		1.0000000000000
7.0000000000000		-4.0000000000000		1.0000000000000
7.0000000000000		-3.5000000000000		1.0000000000000
7.0000000000000		-3.0000000000000		1.0000000000000
7.0000000000000		-2.5000000000000		1.0000000000000
7.0000000000000		-2.0000000000000		1.0000000000000
7.0000000000000		-1.5000000000000		1.0000000000000
7.0000000000000		-1.0000000000000		1.0000000000000
7.0000000000000		-0.5000000000000		1.0000000000000
7.0000000000000		0.0000000000000		1.0000000000000
7.0000000000000		0.5000000000000		1.0000000000000
7.0000000000000		1.0000000000000		1.0000000000000
7.0000000000000		1.5000000000000		1.0000000000000
7.0000000000000		2.0000000000000		1.0000000000000
7.0000000000000		2.5000000000000		1.0000000000000
7.0000000000000		3.0000000000000		1.0000000000000
7.0000000000000		3.5000000000000		1.0000000000000
7.0000000000000		4.0000000000000		1.0000000000000
7.0000000000000		4.5000000000000		1.0000000000000
7.0000000000000		5.0000000000000		1.0000000000000
7.0000000000000		5.5000000000000		1.0000000000000
7.0000000000000		6.0000000000000		1.0000000000000
7.0000000000000		6.5000000000000		1.0000000000000
7.0000000000000		7.0000000000000		1.0000000000000
7.0000000000000		7.5000000000000		1.0000000000000
7.0000000000000		8.0000000000000		1.0000000000000
7.0000000000000		8.5000000000000		1.0000000000000
7.0000000000000		9.0000000000000		1.0000000000000
7.0000000000000		9.5000000000000		1.0000000000000

7.5000000000000		-9.5000000000000		1.0000000000000
7.5000000000000		-9.0000000000000		1.0000000000000
7.5000000000000		-8.5000000000000		1.0000000000000
7.5000000000000		-8.0000000000000		1.0000000000000
7.5000000000000		-7.5000000000000		1.0000000000000
7.5000000000000		-7.0000000000000		1.0000000000000
7.5000000000000		-6.5000000000000		1.0000000000000
7.5000000000000		-6.0000000000000		1.0000000000000
7.5000000000000		-5.5000000000000		1.0000000000000
7.5000000000000		-5.0000000000000		1.0000000000000
7.5000000000000		-4.5000000000000		1.0000000000000
7.5000000000000		-4.0000000000000		1.0000000000000
7.5000000000000		-3.5000000000000		1.0000000000000
7.5000000000000		-3.0000000000000		1.0000000000000
7.5000000000000		-2.5000000000000		1.0000000000000
7.5000000000000		-2.0000000000000		1.0000000000000
7.5000000000000		-1.5000000000000		1.0000000000000
7.5000000000000		-1.0000000000000		1.0000000000000
7.5000000000000		-0.5000000000000		1.0000000000000
7.5000000000000		0.0000000000000		1.0000000000000
7.5000000000000		0.5000000000000		1.0000000000000
7.5000000000000		1.0000000000000		1.0000000000000
7.5000000000000		1.5000000000000		1.0000000000000
7.5000000000000		2.0000000000000		1.0000000000000
7.5000000000000		2.5000000000000		1.0000000000000
7.5000000000000		3.0000000000000		1.0000000000000
7.5000000000000		3.5000000000000		1.0000000000000
7.5000000000000		4.0000000000000		1.0000000000000
7.5000000000000		4.5000000000000		1.0000000000000
7.5000000000000		5.0000000000000		1.0000000000000
7.5000000000000		5.5000000000000		1.0000000000000
7.5000000000000		6.0000000000000		1.0000000000000
7.5000000000000		6.5000000000000		1.0000000000000
7.5000000000000		7.0000000000000		1.0000000000000
7.5000000000000		7.5000000000000		1.0000000000000
7.5000000000000		8.0000000000000		0.9999999999999
7.5000000000000		8.5000000000000		1.0000000000000
7.5000000000000		9.0000000000000		1.0000000000000
7.5000000000000		9.5000000000000		1.0000000000000

8.0000000000000		-9.5000000000000		1.0000000000000
8.0000000000000		-9.0000000000000		1.0000000000000
8.0000000000000		-8.5000000000000		1.0000000000000
8.0000000000000		-8.0000000000000		1.0000000000000
8.0000000000000		-7.5000000000000		1.0000000000000
8.0000000000000		-7.0000000000000		1.0000000000000
8.0000000000000		-6.5000000000000		1.0000000000000
8.0000000000000		-6.0000000000000		1.0000000000000
8.0000000000000		-5.5000000000000		1.0000000000000
8.0000000000000		-5.0000000000000		1.0000000000000
8.0000000000000		-4.5000000000000		1.0000000000000
8.0000000000000		-4.0000000000000		1.0000000000000
8.0000000000000		-3.5000000000000		1.0000000000000
8.0000000000000		-3.0000000000000		1.0000000000000
8.0000000000000		-2.5000000000000		1.0000000000000
8.0000000000000		-2.0000000000000		1.0000000000000
8.0000000000000		-1.5000000000000		1.0000000000000
8.0000000000000		-1.0000000000000		1.0000000000000
8.0000000000000		-0.5000000000000		1.0000000000000
8.0000000000000		0.0000000000000		1.0000000000000
8.0000000000000		0.5000000000000		1.0000000000000
8.0000000000000		1.0000000000000		1.0000000000000
8.0000000000000		1.5000000000000		1.0000000000000
8.0000000000000		2.0000000000000		1.0000000000000
8.0000000000000		2.5000000000000		1.0000000000000
8.0000000000000		3.0000000000000		1.0000000000000
8.0000000000000		3.5000000000000		1.0000000000000
8.0000000000000		4.0000000000000		1.0000000000000
8.0000000000000		4.5000000000000		1.0000000000000
8.0000000000000		5.0000000000000		1.0000000000000
8.0000000000000		5.5000000000000		1.0000000000000
8.0000000000000		6.0000000000000		1.0000000000000
8.0000000000000		6.5000000000000		1.0000000000000
8.0000000000000		7.0000000000000		1.0000000000000
8.0000000000000		7.5000000000000		1.0000000000000
8.0000000000000		8.0000000000000		1.0000000000000
8.0000000000000		8.5000000000000		1.0000000000000
8.0000000000000		9.0000000000000		1.0000000000000
8.0000000000000		9.5000000000000		1.0000000000000

8.5000000000000		-9.5000000000000		1.0000000000000
8.5000000000000		-9.0000000000000		1.0000000000000
8.5000000000000		-8.5000000000000		1.0000000000000
8.5000000000000		-8.0000000000000		1.0000000000000
8.5000000000000		-7.5000000000000		1.0000000000000
8.5000000000000		-7.0000000000000		1.0000000000000
8.5000000000000		-6.5000000000000		1.0000000000000
8.5000000000000		-6.0000000000000		1.0000000000000
8.5000000000000		-5.5000000000000		1.0000000000000
8.5000000000000		-5.0000000000000		1.0000000000000
8.5000000000000		-4.5000000000000		0.9999999999999
8.5000000000000		-4.0000000000000		1.0000000000000
8.5000000000000		-3.5000000000000		1.0000000000000
8.5000000000000		-3.0000000000000		1.0000000000000
8.5000000000000		-2.5000000000000		1.0000000000000
8.5000000000000		-2.0000000000000		1.0000000000000
8.5000000000000		-1.5000000000000		1.0000000000000
8.5000000000000		-1.0000000000000		0.9999999999999
8.5000000000000		-0.5000000000000		1.0000000000000
8.5000000000000		0.0000000000000		1.0000000000000
8.5000000000000		0.5000000000000		1.0000000000000
8.5000000000000		1.0000000000000		0.9999999999999
8.5000000000000		1.5000000000000		1.0000000000000
8.5000000000000		2.0000000000000		1.0000000000000
8.5000000000000		2.5000000000000		1.0000000000000
8.5000000000000		3.0000000000000		1.0000000000000
8.5000000000000		3.5000000000000		1.0000000000000
8.5000000000000		4.0000000000000		1.0000000000000
8.5000000000000		4.5000000000000		1.0000000000000
8.5000000000000		5.0000000000000		1.0000000000000
8.5000000000000		5.5000000000000		1.0000000000000
8.5000000000000		6.0000000000000		1.0000000000000
8.5000000000000		6.5000000000000		1.0000000000000
8.5000000000000		7.0000000000000		1.0000000000000
8.5000000000000		7.5000000000000		1.0000000000000
8.5000000000000		8.0000000000000		1.0000000000000
8.5000000000000		8.5000000000000		1.0000000000000
8.5000000000000		9.0000000000000		1.0000000000000
8.5000000000000		9.5000000000000		1.0000000000000

9.0000000000000		-9.5000000000000		1.0000000000000
9.0000000000000		-9.0000000000000		1.0000000000000
9.0000000000000		-8.5000000000000		1.0000000000000
9.0000000000000		-8.0000000000000		1.0000000000000
9.0000000000000		-7.5000000000000		1.0000000000000
9.0000000000000		-7.0000000000000		1.0000000000000
9.0000000000000		-6.5000000000000		1.0000000000000
9.0000000000000		-6.0000000000000		1.0000000000000
9.0000000000000		-5.5000000000000		1.0000000000000
9.0000000000000		-5.0000000000000		1.0000000000000
9.0000000000000		-4.5000000000000		0.9999999999999
9.0000000000000		-4.0000000000000		1.0000000000000
9.0000000000000		-3.5000000000000		1.0000000000000
9.0000000000000		-3.0000000000000		1.0000000000000
9.0000000000000		-2.5000000000000		1.0000000000000
9.0000000000000		-2.0000000000000		1.0000000000000
9.0000000000000		-1.5000000000000		1.0000000000000
9.0000000000000		-1.0000000000000		0.9999999999999
9.0000000000000		-0.5000000000000		1.0000000000000
9.0000000000000		0.0000000000000		1.0000000000000
9.0000000000000		0.5000000000000		1.0000000000000
9.0000000000000		1.0000000000000		0.9999999999999
9.0000000000000		1.5000000000000		1.0000000000000
9.0000000000000		2.0000000000000		1.0000000000000
9.0000000000000		2.5000000000000		1.0000000000000
9.0000000000000		3.0000000000000		1.0000000000000
9.0000000000000		3.5000000000000		1.0000000000000
9.0000000000000		4.0000000000000		1.0000000000000
9.0000000000000		4.5000000000000		1.0000000000000
9.0000000000000		5.0000000000000		1.0000000000000
9.0000000000000		5.5000000000000		1.0000000000000
9.0000000000000		6.0000000000000		1.0000000000000
9.0000000000000		6.5000000000000		1.0000000000000
9.0000000000000		7.0000000000000		1.0000000000000
9.0000000000000		7.5000000000000		1.0000000000000
9.0000000000000		8.0000000000000		1.0000000000000
9.0000000000000		8.5000000000000		1.0000000000000
9.0000000000000		9.0000000000000		1.0000000000000
9.0000000000000		9.5000000000000		1.0000000000000

9.5000000000000		-9.5000000000000		1.0000000000000
9.5000000000000		-9.0000000000000		1.0000000000000
9.5000000000000		-8.5000000000000		1.0000000000000
9.5000000000000		-8.0000000000000		1.0000000000000
9.5000000000000		-7.5000000000000		1.0000000000000
9.5000000000000		-7.0000000000000		1.0000000000000
9.5000000000000		-6.5000000000000		1.0000000000000
9.5000000000000		-6.0000000000000		1.0000000000000
9.5000000000000		-5.5000000000000		1.0000000000000
9.5000000000000		-5.0000000000000		1.0000000000000
9.5000000000000		-4.5000000000000		0.9999999999999
9.5000000000000		-4.0000000000000		1.0000000000000
9.5000000000000		-3.5000000000000		1.0000000000000
9.5000000000000		-3.0000000000000		1.0000000000000
9.5000000000000		-2.5000000000000		1.0000000000000
9.5000000000000		-2.0000000000000		1.0000000000000
9.5000000000000		-1.5000000000000		1.0000000000000
9.5000000000000		-1.0000000000000		0.9999999999999
9.5000000000000		-0.5000000000000		1.0000000000000
9.5000000000000		0.0000000000000		1.0000000000000
9.5000000000000		0.5000000000000		1.0000000000000
9.5000000000000		1.0000000000000		0.9999999999999
9.5000000000000		1.5000000000000		1.0000000000000
9.5000000000000		2.0000000000000		1.0000000000000
9.5000000000000		2.5000000000000		1.0000000000000
9.5000000000000		3.0000000000000		1.0000000000000
9.5000000000000		3.5000000000000		1.0000000000000
9.5000000000000		4.0000000000000		1.0000000000000
9.5000000000000		4.5000000000000		1.0000000000000
9.5000000000000		5.0000000000000		1.0000000000000
9.5000000000000		5.5000000000000		1.0000000000000
9.5000000000000		6.0000000000000		1.0000000000000
9.5000000000000		6.5000000000000		1.0000000000000
9.5000000000000		7.0000000000000		1.0000000000000
9.5000000000000		7.5000000000000		1.0000000000000
9.5000000000000		8.0000000000000		1.0000000000000
9.5000000000000		8.5000000000000		1.0000000000000
9.5000000000000		9.0000000000000		1.0000000000000
9.5000000000000		9.5000000000000		1.0000000000000



#Time = 9.3750000000000
-9.5000000000000		-9.5000000000000		5.6839462882578
-9.5000000000000		-9.0000000000000		5.6839462882578
-9.5000000000000		-8.5000000000000		5.6839462882578
-9.5000000000000		-8.0000000000000		5.6839462882951
-9.5000000000000		-7.5000000000000		5.6839462884041
-9.5000000000000		-7.0000000000000		5.6839462887500
-9.5000000000000		-6.5000000000000		5.6839462897174
-9.5000000000000		-6.0000000000000		5.6839462921371
-9.5000000000000		-5.5000000000000		5.6839462975549
-9.5000000000000		-5.0000000000000		5.6839463070711
-9.5000000000000		-4.5000000000000		5.6839463111076
-9.5000000000000		-4.0000000000000		5.6839462660974
-9.5000000000000		-3.5000000000000		5.6839459326693
-9.5000000000000		-3.0000000000000		5.6839446216886
-9.5000000000000		-2.5000000000000		5.6839408135259
-9.5000000000000		-2.0000000000000		5.6839325393629
-9.5000000000000		-1.5000000000000		5.6839205522515
-9.5000000000000		-1.0000000000000		5.6839071585724
-9.5000000000000		-0.5000000000000		5.6838982714967
-9.5000000000000		0.0000000000000		5.6838952275960
-9.5000000000000		0.5000000000000		5.6838993264397
-9.5000000000000		1.0000000000000		5.6839090972807
-9.5000000000000		1.5000000000000		5.6839223507436
-9.5000000000000		2.0000000000000		5.6839339831502
-9.5000000000000		2.5000000000000		5.6839415359054
-9.5000000000000		3.0000000000000		5.6839448893022
-9.5000000000000		3.5000000000000		5.6839460253625
-9.5000000000000		4.0000000000000		5.6839462913482
-9.5000000000000		4.5000000000000		5.6839463190940
-9.5000000000000		5.0000000000000		5.6839463092541
-9.5000000000000		5.5000000000000		5.6839462979611
-9.5000000000000		6.0000000000000		5.6839462922210
-9.5000000000000		6.5000000000000		5.6839462897225
-9.5000000000000		7.0000000000000		5.6839462887446
-9.5000000000000		7.5000000000000		5.6839462884010
-9.5000000000000		8.0000000000000		5.6839462882940
-9.5000000000000		8.5000000000000		5.6839462882575
-9.5000000000000		9.0000000000000		5.6839462882575
-9.5000000000000		9.5000000000000		5.6839462882575

-9.0000000000000		-9.5000000000000		5.6839462882578
-9.0000000000000		-9.0000000000000		5.6839462882578
-9.0000000000000		-8.5000000000000		5.6839462882578
-9.0000000000000		-8.0000000000000		5.6839462882951
-9.0000000000000		-7.5000000000000		5.6839462884041
-9.0000000000000		-7.0000000000000		5.6839462887500
-9.0000000000000		-6.5000000000000		5.6839462897174
-9.0000000000000		-6.0000000000000		5.6839462921371
